ncols         101
nrows         101
xllcorner     0.000
yllcorner     0.000
cellsize      10.000
NODATA_value  -9999.0
0.000 0.000 0.000 0.000 0.000 0.000 0.000 0.000 0.000 0.000 0.000 0.000 0.000 0.000 0.000 0.001 0.001 0.001 0.001 0.002 0.003 0.004 0.005 0.007 0.010 0.014 0.019 0.025 0.034 0.045 0.059 0.077 0.099 0.127 0.159 0.198 0.244 0.296 0.356 0.423 0.496 0.575 0.658 0.745 0.833 0.921 1.006 1.086 1.160 1.225 1.280 1.324 1.357 1.380 1.396 1.407 1.417 1.434 1.462 1.512 1.591 1.710 1.881 2.113 2.416 2.801 3.274 3.841 4.503 5.258 6.101 7.018 7.995 9.009 10.036 11.045 12.007 12.888 13.658 14.289 14.755 15.039 15.130 15.022 14.720 14.236 13.588 12.800 11.899 10.917 9.885 8.834 7.791 6.781 5.824 4.937 4.131 3.410 2.779 2.235 1.774 
0.000 0.000 0.000 0.000 0.000 0.000 0.000 0.000 0.000 0.000 0.000 0.000 0.000 0.001 0.001 0.001 0.001 0.002 0.002 0.003 0.004 0.006 0.008 0.011 0.015 0.021 0.028 0.039 0.052 0.069 0.090 0.117 0.150 0.190 0.239 0.296 0.363 0.440 0.526 0.622 0.727 0.839 0.957 1.079 1.202 1.323 1.439 1.548 1.645 1.730 1.799 1.851 1.887 1.908 1.916 1.916 1.912 1.913 1.927 1.964 2.036 2.155 2.335 2.587 2.926 3.361 3.903 4.557 5.326 6.207 7.193 8.271 9.421 10.618 11.833 13.030 14.173 15.224 16.146 16.903 17.469 17.819 17.940 17.826 17.482 16.920 16.162 15.237 14.176 13.017 11.796 10.549 9.311 8.110 6.972 5.915 4.952 4.092 3.337 2.686 2.133 
0.000 0.000 0.000 0.000 0.000 0.000 0.000 0.000 0.000 0.000 0.000 0.000 0.001 0.001 0.001 0.001 0.002 0.002 0.003 0.004 0.006 0.009 0.012 0.017 0.023 0.032 0.043 0.058 0.078 0.103 0.135 0.175 0.224 0.283 0.354 0.437 0.533 0.643 0.767 0.903 1.051 1.209 1.374 1.542 1.711 1.876 2.033 2.177 2.305 2.412 2.497 2.557 2.594 2.607 2.601 2.582 2.555 2.531 2.519 2.534 2.589 2.700 2.881 3.150 3.521 4.007 4.620 5.366 6.250 7.269 8.413 9.668 11.011 12.413 13.838 15.246 16.594 17.836 18.929 19.832 20.511 20.938 21.096 20.979 20.590 19.944 19.066 17.989 16.750 15.392 13.959 12.494 11.036 9.620 8.277 7.027 5.888 4.869 3.974 3.201 2.544 
0.000 0.000 0.000 0.000 0.000 0.000 0.000 0.000 0.000 0.000 0.001 0.001 0.001 0.001 0.001 0.002 0.002 0.003 0.005 0.007 0.009 0.013 0.018 0.025 0.035 0.048 0.065 0.088 0.117 0.154 0.201 0.259 0.330 0.415 0.517 0.636 0.774 0.930 1.104 1.295 1.502 1.720 1.947 2.177 2.406 2.627 2.835 3.023 3.187 3.321 3.423 3.489 3.521 3.520 3.491 3.441 3.379 3.316 3.266 3.245 3.271 3.361 3.535 3.812 4.209 4.744 5.429 6.272 7.279 8.445 9.761 11.210 12.764 14.391 16.049 17.692 19.267 20.724 22.009 23.077 23.884 24.401 24.604 24.487 24.052 23.316 22.307 21.063 19.628 18.051 16.383 14.675 12.973 11.318 9.745 8.280 6.944 5.747 4.694 3.784 3.010 
0.000 0.000 0.000 0.000 0.000 0.000 0.000 0.000 0.000 0.001 0.001 0.001 0.001 0.001 0.002 0.003 0.004 0.005 0.007 0.010 0.014 0.019 0.027 0.038 0.052 0.071 0.097 0.130 0.172 0.226 0.294 0.378 0.480 0.602 0.747 0.915 1.108 1.327 1.569 1.834 2.117 2.416 2.723 3.034 3.339 3.631 3.903 4.145 4.352 4.516 4.633 4.702 4.722 4.696 4.631 4.536 4.421 4.302 4.195 4.121 4.100 4.155 4.309 4.583 5.000 5.578 6.333 7.276 8.410 9.733 11.234 12.891 14.676 16.548 18.461 20.361 22.188 23.881 25.380 26.631 27.584 28.202 28.460 28.346 27.864 27.033 25.884 24.459 22.811 20.995 19.070 17.096 15.125 13.206 11.379 9.677 8.121 6.727 5.498 4.436 3.531 
0.000 0.000 0.000 0.000 0.000 0.000 0.000 0.001 0.001 0.001 0.001 0.001 0.002 0.002 0.003 0.004 0.005 0.007 0.010 0.014 0.020 0.029 0.040 0.056 0.077 0.105 0.142 0.190 0.251 0.329 0.425 0.544 0.689 0.861 1.064 1.299 1.567 1.869 2.201 2.562 2.947 3.349 3.761 4.173 4.575 4.956 5.305 5.611 5.866 6.062 6.193 6.257 6.254 6.189 6.071 5.909 5.720 5.522 5.337 5.187 5.099 5.099 5.215 5.473 5.898 6.512 7.334 8.375 9.641 11.128 12.823 14.704 16.735 18.872 21.061 23.240 25.340 27.292 29.027 30.479 31.594 32.327 32.648 32.543 32.015 31.085 29.787 28.170 26.292 24.218 22.015 19.751 17.488 15.281 13.178 11.215 9.420 7.809 6.388 5.157 4.109 
0.000 0.000 0.000 0.000 0.000 0.000 0.001 0.001 0.001 0.001 0.001 0.002 0.002 0.003 0.004 0.005 0.007 0.011 0.015 0.021 0.030 0.042 0.059 0.081 0.112 0.152 0.205 0.274 0.361 0.471 0.608 0.775 0.976 1.216 1.497 1.820 2.188 2.598 3.049 3.535 4.050 4.584 5.127 5.666 6.187 6.676 7.117 7.498 7.807 8.034 8.173 8.221 8.180 8.057 7.861 7.609 7.318 7.013 6.720 6.467 6.285 6.207 6.265 6.488 6.908 7.548 8.429 9.566 10.965 12.620 14.519 16.634 18.926 21.345 23.829 26.307 28.702 30.934 32.923 34.597 35.890 36.751 37.144 37.054 36.482 35.449 33.996 32.176 30.055 27.706 25.206 22.632 20.054 17.538 15.136 12.892 10.837 8.990 7.360 5.947 4.742 
0.000 0.000 0.000 0.000 0.001 0.001 0.001 0.001 0.001 0.001 0.002 0.002 0.003 0.004 0.006 0.008 0.011 0.015 0.022 0.031 0.043 0.061 0.085 0.117 0.161 0.218 0.294 0.390 0.513 0.667 0.857 1.089 1.367 1.696 2.079 2.519 3.015 3.567 4.169 4.814 5.494 6.194 6.901 7.596 8.261 8.878 9.427 9.892 10.258 10.512 10.649 10.666 10.566 10.358 10.056 9.680 9.254 8.807 8.372 7.983 7.677 7.493 7.466 7.634 8.030 8.682 9.614 10.841 12.370 14.197 16.305 18.663 21.228 23.943 26.738 29.534 32.242 34.772 37.036 38.947 40.434 41.436 41.912 41.843 41.229 40.094 38.481 36.450 34.074 31.436 28.622 25.719 22.808 19.961 17.241 14.697 12.364 10.265 8.411 6.801 5.428 
0.000 0.000 0.000 0.001 0.001 0.001 0.001 0.001 0.001 0.002 0.002 0.003 0.004 0.006 0.008 0.011 0.015 0.022 0.031 0.044 0.062 0.087 0.121 0.167 0.229 0.310 0.415 0.549 0.720 0.932 1.193 1.510 1.888 2.334 2.850 3.440 4.102 4.833 5.627 6.473 7.357 8.262 9.168 10.052 10.889 11.656 12.328 12.883 13.305 13.580 13.700 13.664 13.476 13.151 12.705 12.166 11.564 10.934 10.317 9.753 9.287 8.963 8.824 8.911 9.262 9.910 10.879 12.188 13.844 15.840 18.159 20.767 23.614 26.636 29.755 32.882 35.920 38.765 41.318 43.484 45.178 46.333 46.903 46.862 46.211 44.975 43.199 40.951 38.312 35.374 32.233 28.987 25.726 22.533 19.478 16.617 13.990 11.624 9.532 7.714 6.161 
0.000 0.001 0.001 0.001 0.001 0.001 0.001 0.002 0.002 0.002 0.003 0.004 0.006 0.008 0.011 0.015 0.022 0.031 0.044 0.062 0.088 0.123 0.171 0.236 0.321 0.433 0.579 0.764 0.997 1.286 1.641 2.068 2.576 3.172 3.858 4.638 5.509 6.465 7.498 8.591 9.726 10.880 12.025 13.132 14.169 15.106 15.913 16.564 17.038 17.319 17.400 17.281 16.971 16.487 15.854 15.105 14.278 13.418 12.571 11.789 11.122 10.622 10.337 10.315 10.598 11.221 12.213 13.592 15.366 17.529 20.058 22.917 26.050 29.386 32.839 36.309 39.687 42.861 45.717 48.149 50.063 51.383 52.056 52.052 51.369 50.034 48.097 45.630 42.723 39.478 36.002 32.401 28.779 25.228 21.824 18.633 15.700 13.055 10.714 8.677 6.936 
0.001 0.001 0.001 0.001 0.001 0.001 0.002 0.002 0.003 0.003 0.004 0.006 0.008 0.011 0.015 0.022 0.031 0.044 0.062 0.088 0.123 0.172 0.239 0.328 0.446 0.599 0.797 1.048 1.363 1.753 2.227 2.796 3.470 4.255 5.156 6.173 7.304 8.538 9.862 11.256 12.693 14.142 15.569 16.935 18.201 19.327 20.279 21.024 21.539 21.806 21.818 21.579 21.102 20.410 19.536 18.522 17.416 16.270 15.143 14.094 13.181 12.464 11.998 11.836 12.024 12.601 13.597 15.033 16.916 19.237 21.972 25.080 28.500 32.152 35.943 39.761 43.488 46.998 50.166 52.875 55.020 56.515 57.299 57.340 56.633 55.205 53.109 50.425 47.250 43.696 39.879 35.920 31.930 28.011 24.252 20.722 17.474 14.542 11.943 9.681 7.744 
0.001 0.001 0.001 0.001 0.001 0.002 0.002 0.003 0.003 0.004 0.006 0.008 0.011 0.015 0.021 0.030 0.043 0.061 0.086 0.122 0.171 0.239 0.330 0.451 0.611 0.818 1.084 1.421 1.841 2.357 2.984 3.732 4.613 5.635 6.801 8.111 9.559 11.131 12.807 14.558 16.352 18.148 19.900 21.560 23.079 24.410 25.511 26.343 26.880 27.103 27.008 26.602 25.904 24.947 23.772 22.431 20.983 19.494 18.030 16.661 15.455 14.478 13.794 13.459 13.523 14.030 15.012 16.488 18.466 20.935 23.868 27.219 30.921 34.887 39.014 43.182 47.259 51.109 54.595 57.587 59.969 61.647 62.552 62.646 61.922 60.408 58.161 55.265 51.827 47.966 43.811 39.493 35.134 30.846 26.728 22.855 19.288 16.064 13.204 10.711 8.575 
0.001 0.001 0.001 0.002 0.002 0.002 0.003 0.004 0.004 0.006 0.008 0.011 0.015 0.020 0.029 0.041 0.059 0.083 0.118 0.167 0.234 0.326 0.449 0.612 0.826 1.103 1.457 1.902 2.454 3.130 3.947 4.917 6.055 7.367 8.857 10.522 12.351 14.325 16.416 18.589 20.797 22.989 25.108 27.095 28.890 30.435 31.681 32.584 33.115 33.257 33.006 32.377 31.396 30.106 28.561 26.826 24.970 23.073 21.213 19.470 17.921 16.642 15.701 15.160 15.074 15.487 16.432 17.931 19.988 22.591 25.710 29.293 33.268 37.540 41.997 46.509 50.934 55.122 58.925 62.202 64.825 66.691 67.724 67.879 67.148 65.558 63.170 60.072 56.379 52.220 47.735 43.064 38.341 33.689 29.214 25.001 21.116 17.600 14.478 11.754 9.417 
0.001 0.001 0.002 0.002 0.002 0.003 0.004 0.005 0.006 0.008 0.010 0.014 0.020 0.028 0.039 0.056 0.080 0.114 0.161 0.227 0.317 0.440 0.604 0.821 1.104 1.468 1.932 2.512 3.230 4.104 5.154 6.397 7.845 9.508 11.386 13.473 15.753 18.199 20.774 23.430 26.110 28.748 31.274 33.616 35.700 37.461 38.839 39.788 40.275 40.285 39.820 38.902 37.568 35.872 33.884 31.680 29.347 26.976 24.659 22.488 20.549 18.924 17.689 16.911 16.646 16.941 17.830 19.332 21.451 24.172 27.461 31.261 35.494 40.059 44.834 49.679 54.441 58.960 63.075 66.633 69.498 71.555 72.720 72.944 72.216 70.562 68.045 64.760 60.826 56.384 51.582 46.571 41.497 36.491 31.668 27.123 22.926 19.125 15.745 12.792 10.257 
0.001 0.002 0.002 0.002 0.003 0.004 0.005 0.006 0.008 0.010 0.014 0.019 0.026 0.037 0.053 0.076 0.108 0.153 0.217 0.304 0.424 0.586 0.802 1.087 1.456 1.930 2.529 3.277 4.196 5.312 6.645 8.215 10.035 12.114 14.451 17.032 19.836 22.825 25.952 29.154 32.360 35.489 38.455 41.170 43.550 45.517 47.004 47.961 48.355 48.174 47.427 46.145 44.380 42.200 39.689 36.942 34.061 31.152 28.320 25.668 23.292 21.283 19.721 18.676 18.207 18.362 19.173 20.659 22.822 25.642 29.082 33.081 37.554 42.391 47.465 52.625 57.708 62.544 66.960 70.793 73.894 76.141 77.442 77.742 77.027 75.322 72.693 69.238 65.085 60.379 55.281 49.950 44.542 39.200 34.046 29.183 24.687 20.610 16.981 13.807 11.080 
0.002 0.002 0.003 0.003 0.004 0.005 0.006 0.008 0.010 0.013 0.018 0.025 0.035 0.050 0.071 0.101 0.144 0.204 0.288 0.403 0.560 0.772 1.053 1.421 1.897 2.504 3.269 4.220 5.383 6.787 8.457 10.414 12.673 15.238 18.105 21.255 24.656 28.260 32.004 35.811 39.592 43.248 46.677 49.775 52.445 54.596 56.157 57.073 57.312 56.870 55.763 54.037 51.757 49.011 45.899 42.535 39.038 35.529 32.128 28.948 26.097 23.669 21.751 20.414 19.720 19.715 20.430 21.882 24.068 26.968 30.538 34.712 39.399 44.486 49.833 55.285 60.667 65.799 70.499 74.592 77.921 80.354 81.792 82.174 81.483 79.743 77.020 73.418 69.068 64.126 58.757 53.133 47.418 41.764 36.302 31.141 26.364 22.027 18.163 14.781 11.870 
0.002 0.003 0.003 0.004 0.005 0.006 0.008 0.010 0.013 0.017 0.024 0.033 0.046 0.066 0.094 0.133 0.189 0.268 0.378 0.528 0.731 1.004 1.364 1.834 2.439 3.208 4.173 5.364 6.817 8.561 10.626 13.034 15.798 18.921 22.392 26.185 30.255 34.540 38.961 43.424 47.818 52.028 55.931 59.408 62.346 64.647 66.231 67.044 67.058 66.275 64.726 62.470 59.591 56.197 52.408 48.356 44.180 40.017 36.001 32.255 28.895 26.023 23.727 22.082 21.146 20.965 21.568 22.968 25.159 28.116 31.791 36.115 40.989 46.294 51.886 57.598 63.251 68.653 73.613 77.948 81.491 84.102 85.675 86.144 85.487 83.728 80.933 77.209 72.692 67.544 61.938 56.054 50.065 44.130 38.389 32.957 27.924 23.349 19.268 15.692 12.612 
0.003 0.003 0.004 0.005 0.006 0.008 0.010 0.013 0.017 0.023 0.031 0.043 0.061 0.086 0.122 0.174 0.247 0.349 0.490 0.682 0.942 1.289 1.745 2.337 3.097 4.058 5.258 6.733 8.523 10.662 13.181 16.104 19.442 23.194 27.341 31.845 36.649 41.675 46.824 51.980 57.014 61.788 66.161 69.995 73.166 75.566 77.112 77.749 77.457 76.247 74.167 71.295 67.735 63.615 59.078 54.278 49.371 44.510 39.843 35.504 31.615 28.283 25.596 23.631 22.443 22.076 22.554 23.887 26.065 29.057 32.813 37.256 42.285 47.775 53.574 59.512 65.399 71.039 76.231 80.784 84.523 87.301 89.004 89.562 88.950 87.188 84.345 80.528 75.877 70.559 64.754 58.649 52.424 46.246 40.261 34.592 29.332 24.546 20.272 16.523 13.291 
0.003 0.004 0.005 0.006 0.008 0.010 0.012 0.016 0.021 0.029 0.040 0.056 0.078 0.111 0.158 0.225 0.318 0.448 0.627 0.871 1.199 1.634 2.204 2.942 3.883 5.068 6.540 8.343 10.519 13.108 16.142 19.643 23.621 28.068 32.955 38.233 43.826 49.639 55.551 61.425 67.107 72.439 77.258 81.413 84.764 87.198 88.629 89.007 88.321 86.596 83.899 80.326 76.008 71.094 65.751 60.153 54.475 48.888 43.549 38.603 34.177 30.380 27.302 25.014 23.573 23.014 23.360 24.614 26.761 29.767 33.575 38.107 43.255 48.891 54.858 60.980 67.063 72.902 78.293 83.034 86.947 89.875 91.702 92.350 91.791 90.045 87.178 83.298 78.549 73.102 67.141 60.859 54.443 48.065 41.878 36.010 30.558 25.592 21.153 17.254 13.890 
0.004 0.005 0.006 0.008 0.009 0.012 0.015 0.020 0.027 0.037 0.051 0.071 0.101 0.142 0.202 0.287 0.405 0.569 0.794 1.099 1.507 2.046 2.749 3.655 4.806 6.249 8.033 10.206 12.818 15.909 19.514 23.653 28.331 33.531 39.214 45.314 51.738 58.368 65.061 71.656 77.975 83.837 89.061 93.479 96.942 99.330 100.561 100.591 99.419 97.091 93.692 89.344 84.201 78.438 72.245 65.818 59.348 53.022 47.008 41.458 36.501 32.249 28.788 26.189 24.499 23.751 23.961 25.126 27.227 30.225 34.059 38.646 43.876 49.616 55.707 61.968 68.201 74.198 79.747 84.645 88.703 91.764 93.704 94.441 93.944 92.230 89.364 85.455 80.647 75.114 69.044 62.633 56.074 49.544 43.201 37.177 31.574 26.464 21.890 17.870 14.397 
0.005 0.006 0.008 0.009 0.012 0.015 0.019 0.026 0.034 0.047 0.065 0.090 0.128 0.181 0.256 0.362 0.510 0.714 0.992 1.368 1.870 2.529 3.386 4.484 5.874 7.607 9.740 12.327 15.420 19.063 23.290 28.118 33.545 39.545 46.064 53.019 60.295 67.753 75.223 82.520 89.442 95.785 101.351 105.958 109.449 111.702 112.638 112.225 110.479 107.464 103.290 98.105 92.087 85.438 78.371 71.102 63.840 56.783 50.110 43.975 38.512 33.827 30.007 27.113 25.189 24.261 24.337 25.408 27.450 30.420 34.252 38.859 44.132 49.932 56.099 62.451 68.786 74.894 80.560 85.576 89.751 92.922 94.962 95.785 95.357 93.692 90.852 86.946 82.120 76.546 70.416 63.928 57.279 50.648 44.199 38.066 32.354 27.140 22.467 18.355 14.800 
0.006 0.007 0.009 0.012 0.015 0.019 0.024 0.032 0.043 0.059 0.081 0.114 0.160 0.226 0.320 0.451 0.633 0.884 1.225 1.683 2.291 3.088 4.118 5.432 7.087 9.143 11.660 14.698 18.313 22.550 27.441 32.998 39.212 46.042 53.419 61.240 69.369 77.640 85.859 93.815 101.281 108.035 113.861 118.565 121.987 124.006 124.551 123.604 121.199 117.424 112.416 106.347 99.425 91.876 83.934 75.835 67.803 60.046 52.749 46.069 40.138 35.060 30.914 27.756 25.620 24.526 24.474 25.450 27.423 30.345 34.148 38.742 44.016 49.831 56.026 62.417 68.804 74.974 80.711 85.805 90.064 93.321 95.445 96.349 95.995 94.393 91.605 87.736 82.931 77.363 71.224 64.714 58.028 51.352 44.848 38.656 32.881 27.604 22.869 18.699 15.089 
0.007 0.009 0.011 0.014 0.018 0.023 0.030 0.040 0.053 0.073 0.101 0.141 0.199 0.280 0.395 0.556 0.778 1.082 1.494 2.045 2.773 3.722 4.944 6.497 8.443 10.848 13.780 17.302 21.472 26.335 31.919 38.231 45.249 52.920 61.156 69.831 78.788 87.832 96.745 105.290 113.221 120.292 126.277 130.975 134.221 135.904 135.962 134.394 131.258 126.667 120.784 113.810 105.979 97.540 88.749 79.857 71.102 62.698 54.834 47.666 41.324 35.904 31.478 28.093 25.776 24.537 24.369 25.250 27.145 30.002 33.750 38.297 43.532 49.316 55.489 61.869 68.255 74.436 80.197 85.328 89.635 92.950 95.142 96.120 95.842 94.318 91.604 87.805 83.062 77.546 71.449 64.969 58.304 51.636 45.133 38.931 33.142 27.845 23.087 18.892 15.257 
0.009 0.011 0.014 0.017 0.022 0.028 0.037 0.049 0.066 0.090 0.125 0.174 0.244 0.343 0.483 0.677 0.944 1.308 1.800 2.454 3.314 4.431 5.862 7.673 9.931 12.710 16.080 20.109 24.856 30.363 36.655 43.729 51.550 60.049 69.119 78.611 88.341 98.091 107.618 116.659 124.949 132.227 138.257 142.833 145.795 147.039 146.520 144.259 140.336 134.893 128.119 120.244 111.525 102.235 92.647 83.027 73.619 64.644 56.289 48.709 42.025 36.327 31.677 28.112 25.651 24.292 24.022 24.814 26.625 29.401 33.069 37.537 42.694 48.402 54.504 60.820 67.153 73.295 79.032 84.156 88.475 91.820 94.060 95.102 94.903 93.467 90.850 87.151 82.508 77.091 71.085 64.690 58.098 51.495 45.045 38.887 33.130 27.857 23.115 18.930 15.299 
0.011 0.014 0.017 0.021 0.027 0.034 0.045 0.060 0.081 0.110 0.152 0.212 0.297 0.416 0.583 0.814 1.132 1.563 2.141 2.907 3.911 5.208 6.863 8.947 11.534 14.701 18.525 23.074 28.406 34.562 41.557 49.379 57.979 67.270 77.122 87.364 97.788 108.150 118.183 127.604 136.130 143.490 149.439 153.775 156.343 157.054 155.883 152.871 148.128 141.820 134.167 125.423 115.868 105.794 95.490 85.230 75.265 65.814 57.063 49.159 42.217 36.315 31.505 27.813 25.248 23.799 23.446 24.154 25.878 28.559 32.124 36.482 41.522 47.111 53.094 59.297 65.526 71.578 77.243 82.318 86.612 89.959 92.226 93.322 93.200 91.863 89.361 85.790 81.284 76.007 70.142 63.881 57.418 50.932 44.588 38.522 32.846 27.639 22.953 18.812 15.216 
0.013 0.016 0.020 0.026 0.032 0.042 0.055 0.073 0.098 0.133 0.184 0.256 0.357 0.499 0.696 0.969 1.341 1.844 2.516 3.403 4.559 6.046 7.935 10.302 13.226 16.790 21.072 26.141 32.052 38.842 46.516 55.050 64.380 74.398 84.954 95.854 106.864 117.719 128.129 137.794 146.419 153.724 159.465 163.442 165.516 165.613 163.729 159.932 154.359 147.205 138.712 129.161 118.851 108.090 97.175 86.387 75.979 66.166 57.128 49.003 41.894 35.869 30.968 27.206 24.581 23.074 22.657 23.290 24.924 27.499 30.941 35.160 40.048 45.476 51.296 57.337 63.414 69.327 74.876 79.859 84.092 87.411 89.685 90.822 90.775 89.543 87.174 83.756 79.420 74.322 68.641 62.564 56.278 49.961 43.772 37.848 32.296 27.198 22.605 18.541 15.009 
0.016 0.020 0.025 0.031 0.039 0.050 0.066 0.087 0.118 0.160 0.220 0.305 0.424 0.591 0.821 1.138 1.570 2.149 2.921 3.934 5.248 6.931 9.059 11.713 14.976 18.934 23.666 29.240 35.708 43.097 51.405 60.593 70.578 81.235 92.391 103.830 115.296 126.502 137.142 146.902 155.479 162.590 167.995 171.505 172.995 172.414 169.781 165.192 158.808 150.853 141.592 131.325 120.368 109.039 97.642 86.460 75.739 65.692 56.485 48.248 41.071 35.008 30.087 26.314 23.673 22.141 21.680 22.248 23.791 26.249 29.549 33.603 38.307 43.538 49.152 54.988 60.867 66.598 71.986 76.838 80.975 84.238 86.498 87.664 87.687 86.565 84.341 81.099 76.961 72.078 66.621 60.770 54.708 48.605 42.618 36.879 31.494 26.544 22.078 18.124 14.683 
0.019 0.024 0.029 0.037 0.047 0.060 0.079 0.104 0.140 0.190 0.261 0.360 0.499 0.692 0.958 1.323 1.815 2.476 3.349 4.492 5.967 7.848 10.214 13.150 16.745 21.084 26.245 32.295 39.278 47.214 56.089 65.847 76.391 87.574 99.202 111.040 122.811 134.212 144.922 154.621 162.999 169.780 174.731 177.677 178.515 177.214 173.821 168.458 161.314 152.632 142.702 131.838 120.367 108.612 96.880 85.449 74.560 64.413 55.164 46.928 39.781 33.766 28.897 25.169 22.558 21.031 20.547 21.058 22.511 24.843 27.984 31.850 36.342 41.342 46.714 52.305 57.945 63.453 68.641 73.326 77.335 80.514 82.739 83.920 84.009 82.999 80.930 77.880 73.964 69.326 64.128 58.543 52.744 46.898 41.153 35.639 30.460 25.692 21.387 17.570 14.245 
0.023 0.028 0.035 0.044 0.056 0.072 0.094 0.124 0.166 0.224 0.306 0.421 0.581 0.802 1.106 1.519 2.075 2.817 3.794 5.066 6.701 8.776 11.373 14.581 18.490 23.184 28.740 35.219 42.660 51.072 60.426 70.653 81.637 93.212 105.166 117.245 129.157 140.585 151.202 160.680 168.716 175.039 179.432 181.738 181.876 179.840 175.705 169.617 161.789 152.485 142.009 130.688 118.854 106.833 94.925 83.402 72.493 62.384 53.219 45.096 38.077 32.191 27.442 23.812 21.271 19.779 19.290 19.754 21.116 23.316 26.285 29.944 34.198 38.939 44.037 49.349 54.715 59.963 64.917 69.403 73.254 76.325 78.495 79.678 79.824 78.926 77.019 74.174 70.500 66.131 61.221 55.933 50.432 44.878 39.412 34.158 29.217 24.663 20.547 16.893 13.707 
0.027 0.033 0.041 0.052 0.066 0.085 0.111 0.146 0.194 0.262 0.356 0.487 0.669 0.919 1.261 1.724 2.345 3.168 4.248 5.646 7.435 9.693 12.508 15.968 20.162 25.175 31.079 37.928 45.753 54.550 64.279 74.854 86.142 97.960 110.081 122.233 134.114 145.400 155.758 164.865 172.425 178.180 181.931 183.543 182.960 180.204 175.371 168.634 160.225 150.425 139.549 127.929 115.899 103.778 91.860 80.403 69.622 59.688 50.727 42.823 36.023 30.343 25.775 22.292 19.857 18.425 17.947 18.372 19.644 21.706 24.492 27.927 31.924 36.381 41.180 46.184 51.246 56.205 60.896 65.153 68.822 71.762 73.859 75.030 75.225 74.437 72.695 70.065 66.647 62.565 57.965 53.000 47.826 42.592 37.434 32.469 27.794 23.481 19.577 16.109 13.081 
0.032 0.039 0.049 0.061 0.078 0.100 0.129 0.170 0.226 0.303 0.410 0.559 0.763 1.043 1.423 1.935 2.619 3.522 4.699 6.217 8.149 10.577 13.588 17.272 21.715 26.999 33.191 40.337 48.457 57.537 67.522 78.311 89.755 101.657 113.775 125.829 137.508 148.485 158.430 167.029 173.996 179.094 182.143 183.036 181.740 178.301 172.844 165.559 156.694 146.543 135.427 123.677 111.622 99.572 87.808 76.572 66.061 56.429 47.785 40.197 33.697 28.289 23.954 20.659 18.361 17.010 16.557 16.948 18.131 20.050 22.644 25.843 29.568 33.724 38.201 42.877 47.611 52.257 56.660 60.667 64.130 66.920 68.928 70.074 70.311 69.628 68.051 65.640 62.486 58.706 54.432 49.809 44.981 40.090 35.263 30.610 26.224 22.172 18.500 15.235 12.381 
0.037 0.046 0.057 0.072 0.091 0.116 0.151 0.197 0.260 0.348 0.468 0.634 0.861 1.170 1.588 2.149 2.893 3.870 5.138 6.765 8.826 11.403 14.584 18.455 23.102 28.600 35.009 42.368 50.685 59.934 70.045 80.905 92.351 104.174 116.123 127.910 139.223 149.737 159.130 167.102 173.384 177.760 180.076 180.249 178.274 174.221 168.234 160.522 151.344 141.000 129.810 118.102 106.194 94.381 82.927 72.056 61.945 52.731 44.502 37.313 31.181 26.099 22.041 18.967 16.828 15.574 15.154 15.517 16.611 18.384 20.780 23.735 27.176 31.018 35.161 39.490 43.881 48.196 52.294 56.031 59.273 61.897 63.802 64.911 65.180 64.596 63.182 60.990 58.105 54.632 50.695 46.425 41.958 37.425 32.945 28.621 24.539 20.763 17.339 14.289 11.622 
0.044 0.054 0.067 0.084 0.106 0.135 0.174 0.226 0.298 0.396 0.530 0.713 0.962 1.300 1.754 2.360 3.160 4.205 5.554 7.277 9.447 12.149 15.466 19.483 24.280 29.928 36.477 43.956 52.364 61.661 71.765 82.551 93.845 105.429 117.047 128.409 139.205 149.120 157.845 165.095 170.626 174.244 175.823 175.306 172.711 168.132 161.731 153.727 144.388 134.014 122.919 111.420 99.822 88.400 77.399 67.021 57.425 48.725 40.994 34.271 28.561 23.847 20.097 17.266 15.303 14.156 13.776 14.112 15.117 16.742 18.936 21.642 24.794 28.314 32.113 36.088 40.124 44.097 47.877 51.333 54.341 56.786 58.576 59.639 59.930 59.438 58.181 56.206 53.588 50.424 46.826 42.916 38.817 34.651 30.526 26.540 22.773 19.285 16.117 13.293 10.820 
0.051 0.063 0.078 0.097 0.123 0.156 0.200 0.259 0.338 0.447 0.594 0.795 1.066 1.431 1.919 2.566 3.415 4.519 5.937 7.738 9.997 12.793 16.209 20.325 25.215 30.942 37.548 45.052 53.441 62.664 72.628 83.198 94.192 105.388 116.526 127.322 137.473 146.677 154.641 161.105 165.846 168.699 169.564 168.409 165.277 160.280 153.591 145.440 136.095 125.850 115.011 103.879 92.738 81.846 71.421 61.646 52.656 44.548 37.378 31.170 25.920 21.603 18.180 15.605 13.826 12.791 12.453 12.763 13.679 15.155 17.146 19.601 22.461 25.657 29.110 32.727 36.404 40.030 43.485 46.653 49.418 51.677 53.343 54.349 54.655 54.246 53.138 51.373 49.018 46.159 42.899 39.347 35.617 31.819 28.053 24.410 20.961 17.764 14.858 12.264 9.990 
0.059 0.073 0.090 0.112 0.141 0.178 0.228 0.294 0.382 0.501 0.661 0.878 1.170 1.560 2.078 2.761 3.653 4.806 6.279 8.139 10.460 13.319 16.793 20.957 25.879 31.613 38.192 45.625 53.887 62.917 72.615 82.836 93.395 104.067 114.598 124.708 134.110 142.517 149.659 155.299 159.242 161.351 161.550 159.833 156.263 150.965 144.124 135.970 126.770 116.806 106.371 95.744 85.190 74.941 65.194 56.105 47.792 40.332 33.765 28.104 23.336 19.429 16.343 14.028 12.434 11.511 11.213 11.496 12.322 13.649 15.438 17.643 20.214 23.089 26.197 29.458 32.777 36.056 39.187 42.064 44.583 46.650 48.185 49.128 49.439 49.105 48.137 46.573 44.472 41.910 38.979 35.780 32.413 28.979 25.569 22.266 19.135 16.229 13.585 11.222 9.149 
0.068 0.084 0.104 0.129 0.161 0.203 0.258 0.331 0.428 0.557 0.731 0.963 1.274 1.686 2.231 2.944 3.870 5.059 6.571 8.470 10.827 13.714 17.204 21.365 26.258 31.927 38.396 45.664 53.697 62.426 71.742 81.495 91.500 101.536 111.353 120.686 129.263 136.818 143.106 147.915 151.079 152.487 152.090 149.903 146.004 140.531 133.672 125.656 116.740 107.194 97.289 87.286 77.423 67.907 58.911 50.570 42.980 36.200 30.260 25.159 20.879 17.384 14.631 12.572 11.157 10.341 10.079 10.333 11.068 12.247 13.836 15.797 18.083 20.643 23.415 26.326 29.294 32.231 35.042 37.630 39.903 41.777 43.178 44.051 44.360 44.091 43.253 41.878 40.018 37.741 35.129 32.270 29.256 26.176 23.114 20.144 17.325 14.705 12.319 10.184 8.309 
0.079 0.097 0.119 0.148 0.184 0.231 0.292 0.371 0.477 0.616 0.802 1.049 1.376 1.808 2.374 3.111 4.062 5.276 6.810 8.726 11.091 13.971 17.435 21.544 26.348 31.884 38.166 45.184 52.896 61.225 70.058 79.244 88.599 97.909 106.935 115.427 123.133 129.810 135.240 139.239 141.668 142.442 141.534 138.979 134.866 129.342 122.593 114.843 106.335 97.322 88.054 78.766 69.670 60.951 52.755 45.195 38.350 32.263 26.951 22.408 18.608 15.514 13.083 11.267 10.021 9.302 9.070 9.291 9.933 10.967 12.361 14.083 16.095 18.350 20.796 23.368 25.996 28.601 31.099 33.406 35.438 37.119 38.385 39.184 39.483 39.270 38.550 37.351 35.718 33.710 31.400 28.866 26.190 23.451 20.724 18.075 15.558 13.216 11.079 9.167 7.485 
0.090 0.111 0.136 0.168 0.209 0.261 0.327 0.414 0.528 0.678 0.875 1.135 1.477 1.925 2.508 3.261 4.227 5.453 6.992 8.904 11.250 14.091 17.489 21.497 26.157 31.498 37.524 44.217 51.529 59.377 67.646 76.187 84.820 93.341 101.526 109.143 115.961 121.765 126.362 129.595 131.352 131.573 130.251 127.435 123.224 117.766 111.244 103.871 95.874 87.486 78.932 70.423 62.146 54.257 46.883 40.115 34.014 28.612 23.915 19.911 16.570 13.857 11.727 10.137 9.044 8.410 8.200 8.383 8.932 9.822 11.027 12.520 14.267 16.231 18.365 20.614 22.916 25.203 27.401 29.435 31.233 32.726 33.857 34.579 34.864 34.696 34.083 33.045 31.622 29.866 27.840 25.612 23.255 20.839 18.430 16.086 13.856 11.780 9.883 8.184 6.688 
0.103 0.126 0.155 0.191 0.236 0.293 0.366 0.460 0.582 0.742 0.950 1.221 1.575 2.036 2.631 3.394 4.365 5.590 7.119 9.006 11.307 14.079 17.374 21.239 25.707 30.799 36.511 42.818 49.665 56.969 64.615 72.456 80.321 88.018 95.341 102.077 108.019 112.978 116.789 119.320 120.486 120.246 118.611 115.640 111.440 106.154 99.960 93.055 85.649 77.951 70.164 62.470 55.033 47.984 41.429 35.440 30.064 25.320 21.209 17.713 14.802 12.439 10.585 9.198 8.240 7.676 7.478 7.617 8.072 8.822 9.845 11.118 12.615 14.302 16.141 18.084 20.078 22.063 23.976 25.751 27.324 28.635 29.634 30.279 30.543 30.413 29.893 29.002 27.771 26.247 24.484 22.541 20.482 18.367 16.256 14.199 12.241 10.414 8.744 7.246 5.926 
0.117 0.143 0.175 0.215 0.265 0.328 0.408 0.509 0.640 0.808 1.026 1.308 1.672 2.142 2.743 3.510 4.478 5.691 7.194 9.037 11.271 13.946 17.107 20.793 25.030 29.828 35.181 41.055 47.393 54.110 61.093 68.204 75.281 82.146 88.612 94.487 99.590 103.756 106.846 108.755 109.418 108.814 106.967 103.943 99.850 94.828 89.042 82.674 75.913 68.946 61.949 55.082 48.481 42.258 36.497 31.255 26.567 22.442 18.876 15.848 13.327 11.281 9.670 8.460 7.615 7.107 6.909 6.999 7.360 7.973 8.822 9.887 11.148 12.575 14.137 15.793 17.497 19.200 20.845 22.375 23.736 24.874 25.745 26.313 26.552 26.452 26.013 25.252 24.196 22.883 21.360 19.679 17.894 16.058 14.223 12.433 10.726 9.132 7.674 6.364 5.209 
0.133 0.162 0.198 0.242 0.297 0.366 0.452 0.561 0.700 0.877 1.104 1.395 1.768 2.243 2.848 3.611 4.568 5.758 7.223 9.007 11.155 13.711 16.712 20.191 24.165 28.639 33.600 39.010 44.811 50.918 57.224 63.598 69.891 75.940 81.577 86.634 90.954 94.396 96.846 98.221 98.476 97.604 95.640 92.655 88.753 84.066 78.748 72.962 66.877 60.655 54.449 48.394 42.605 37.172 32.163 27.621 23.569 20.013 16.941 14.333 12.160 10.390 8.990 7.928 7.175 6.704 6.496 6.532 6.797 7.277 7.960 8.830 9.869 11.054 12.358 13.748 15.184 16.623 18.019 19.321 20.482 21.457 22.206 22.698 22.910 22.831 22.462 21.816 20.915 19.792 18.486 17.043 15.507 13.927 12.344 10.798 9.323 7.944 6.680 5.544 4.541 
0.150 0.183 0.223 0.272 0.332 0.407 0.500 0.617 0.764 0.950 1.186 1.485 1.863 2.342 2.946 3.701 4.640 5.799 7.214 8.926 10.974 13.394 16.217 19.468 23.160 27.291 31.841 36.773 42.027 47.522 53.155 58.807 64.340 69.611 74.469 78.770 82.378 85.177 87.075 88.009 87.950 86.903 84.908 82.039 78.394 74.097 69.286 64.105 58.702 53.218 47.781 42.504 37.482 32.788 28.474 24.572 21.098 18.050 15.417 13.177 11.305 9.771 8.546 7.604 6.918 6.469 6.239 6.215 6.383 6.735 7.260 7.946 8.779 9.739 10.806 11.950 13.139 14.336 15.501 16.592 17.569 18.391 19.024 19.442 19.624 19.560 19.250 18.703 17.939 16.985 15.874 14.644 13.333 11.982 10.627 9.303 8.038 6.854 5.768 4.791 3.927 
0.169 0.205 0.250 0.304 0.370 0.452 0.552 0.677 0.832 1.027 1.270 1.576 1.960 2.441 3.040 3.784 4.700 5.821 7.180 8.811 10.747 13.020 15.654 18.668 22.067 25.846 29.982 34.437 39.151 44.047 49.031 53.994 58.812 63.359 67.504 71.123 74.102 76.347 77.785 78.370 78.086 76.947 74.996 72.306 68.969 65.096 60.809 56.236 51.502 46.727 42.019 37.470 33.158 29.139 25.453 22.125 19.161 16.559 14.305 12.380 10.760 9.420 8.335 7.483 6.843 6.399 6.136 6.046 6.118 6.345 6.720 7.233 7.875 8.628 9.476 10.395 11.358 12.334 13.288 14.186 14.991 15.672 16.198 16.544 16.695 16.639 16.377 15.916 15.272 14.466 13.526 12.485 11.374 10.228 9.078 7.952 6.875 5.867 4.941 4.107 3.369 
0.189 0.230 0.279 0.339 0.411 0.500 0.608 0.741 0.905 1.108 1.360 1.672 2.060 2.541 3.134 3.863 4.754 5.833 7.131 8.676 10.496 12.617 15.058 17.831 20.938 24.369 28.100 32.091 36.287 40.615 44.989 49.311 53.473 57.364 60.872 63.892 66.332 68.114 69.183 69.507 69.079 67.921 66.076 63.613 60.615 57.182 53.419 49.437 45.342 41.234 37.201 33.318 29.647 26.232 23.102 20.274 17.753 15.531 13.598 11.933 10.518 9.331 8.352 7.562 6.945 6.489 6.184 6.021 5.996 6.102 6.334 6.687 7.151 7.714 8.362 9.076 9.833 10.607 11.369 12.090 12.740 13.291 13.716 13.995 14.113 14.061 13.838 13.449 12.907 12.230 11.440 10.564 9.629 8.664 7.694 6.744 5.835 4.983 4.199 3.493 2.867 
0.211 0.256 0.311 0.376 0.456 0.551 0.668 0.809 0.982 1.194 1.455 1.774 2.166 2.646 3.233 3.946 4.809 5.846 7.080 8.538 10.242 12.212 14.462 17.000 19.824 22.921 26.266 29.821 33.532 37.335 41.151 44.893 48.468 51.779 54.733 57.243 59.232 60.641 61.428 61.571 61.072 59.955 58.263 56.058 53.417 50.423 47.170 43.749 40.250 36.753 33.331 30.045 26.941 24.054 21.405 19.006 16.857 14.952 13.280 11.824 10.568 9.495 8.589 7.835 7.220 6.737 6.379 6.139 6.014 6.002 6.099 6.300 6.599 6.988 7.453 7.980 8.550 9.142 9.730 10.292 10.800 11.231 11.564 11.779 11.864 11.811 11.618 11.289 10.834 10.266 9.606 8.873 8.091 7.284 6.472 5.676 4.914 4.199 3.541 2.948 2.422 
0.235 0.285 0.345 0.417 0.503 0.607 0.732 0.883 1.066 1.287 1.556 1.883 2.279 2.759 3.339 4.038 4.874 5.868 7.041 8.415 10.006 11.831 13.899 16.215 18.773 21.558 24.547 27.701 30.972 34.301 37.619 40.849 43.912 46.726 49.212 51.299 52.926 54.047 54.630 54.664 54.155 53.127 51.622 49.694 47.410 44.844 42.072 39.171 36.214 33.268 30.388 27.624 25.012 22.577 20.334 18.292 16.450 14.800 13.334 12.038 10.898 9.902 9.038 8.294 7.663 7.138 6.716 6.392 6.167 6.039 6.006 6.064 6.211 6.438 6.737 7.094 7.495 7.922 8.354 8.771 9.151 9.473 9.720 9.876 9.929 9.871 9.700 9.420 9.036 8.562 8.011 7.401 6.751 6.080 5.405 4.743 4.108 3.512 2.964 2.469 2.030 
0.261 0.316 0.382 0.461 0.555 0.667 0.802 0.963 1.156 1.387 1.666 2.000 2.402 2.883 3.458 4.143 4.954 5.909 7.026 8.321 9.807 11.498 13.399 15.511 17.826 20.330 22.998 25.795 28.677 31.590 34.476 37.267 39.896 42.294 44.397 46.146 47.494 48.404 48.855 48.841 48.371 47.468 46.170 44.526 42.591 40.429 38.102 35.673 33.200 30.738 28.330 26.015 23.819 21.762 19.855 18.102 16.503 15.051 13.739 12.557 11.495 10.542 9.691 8.935 8.268 7.687 7.191 6.779 6.451 6.208 6.048 5.972 5.976 6.054 6.200 6.403 6.651 6.928 7.219 7.505 7.770 7.994 8.163 8.262 8.283 8.216 8.062 7.820 7.496 7.098 6.640 6.134 5.596 5.040 4.482 3.935 3.410 2.917 2.463 2.053 1.688 
0.289 0.350 0.422 0.508 0.610 0.732 0.876 1.048 1.252 1.495 1.785 2.128 2.537 3.021 3.594 4.268 5.058 5.980 7.046 8.270 9.664 11.235 12.987 14.918 17.020 19.277 21.665 24.152 26.699 29.259 31.780 34.206 36.479 38.542 40.342 41.833 42.977 43.746 44.126 44.114 43.721 42.968 41.889 40.524 38.922 37.132 35.208 33.198 31.151 29.107 27.102 25.164 23.313 21.565 19.926 18.401 16.988 15.682 14.477 13.368 12.346 11.405 10.541 9.750 9.030 8.380 7.801 7.293 6.860 6.501 6.220 6.014 5.883 5.823 5.828 5.889 5.998 6.141 6.304 6.473 6.633 6.768 6.865 6.912 6.901 6.824 6.679 6.466 6.190 5.856 5.474 5.055 4.611 4.153 3.693 3.243 2.811 2.406 2.032 1.695 1.395 
0.319 0.386 0.465 0.559 0.670 0.801 0.956 1.140 1.356 1.612 1.913 2.268 2.686 3.176 3.749 4.417 5.192 6.086 7.110 8.276 9.591 11.060 12.684 14.461 16.381 18.428 20.580 22.808 25.077 27.347 29.571 31.703 33.694 35.498 37.071 38.376 39.383 40.071 40.431 40.461 40.173 39.586 38.727 37.632 36.338 34.887 33.321 31.679 29.998 28.309 26.640 25.013 23.442 21.939 20.509 19.154 17.875 16.668 15.528 14.454 13.439 12.483 11.582 10.736 9.946 9.213 8.541 7.932 7.389 6.915 6.512 6.181 5.922 5.731 5.606 5.538 5.519 5.540 5.588 5.651 5.716 5.770 5.801 5.799 5.756 5.666 5.526 5.335 5.096 4.813 4.494 4.147 3.780 3.403 3.026 2.657 2.304 1.972 1.667 1.390 1.145 
0.351 0.424 0.510 0.612 0.733 0.875 1.042 1.238 1.468 1.738 2.053 2.421 2.850 3.349 3.927 4.594 5.359 6.234 7.227 8.347 9.598 10.985 12.506 14.157 15.928 17.804 19.765 21.785 23.832 25.872 27.865 29.771 31.551 33.165 34.579 35.761 36.690 37.348 37.729 37.833 37.670 37.256 36.614 35.773 34.762 33.614 32.362 31.037 29.666 28.274 26.881 25.504 24.154 22.839 21.564 20.331 19.139 17.988 16.877 15.803 14.767 13.768 12.808 11.888 11.012 10.184 9.409 8.690 8.033 7.441 6.918 6.465 6.082 5.768 5.519 5.331 5.196 5.104 5.048 5.014 4.993 4.973 4.944 4.896 4.823 4.718 4.578 4.402 4.191 3.949 3.680 3.390 3.087 2.777 2.468 2.167 1.879 1.608 1.359 1.134 0.935 
0.385 0.464 0.558 0.670 0.800 0.954 1.133 1.343 1.588 1.873 2.205 2.588 3.032 3.543 4.130 4.801 5.565 6.430 7.403 8.490 9.695 11.019 12.461 14.016 15.672 17.417 19.232 21.092 22.971 24.838 26.661 28.405 30.037 31.524 32.838 33.954 34.853 35.524 35.959 36.161 36.136 35.898 35.466 34.860 34.104 33.225 32.246 31.190 30.079 28.931 27.762 26.582 25.401 24.224 23.057 21.900 20.756 19.625 18.507 17.405 16.320 15.256 14.215 13.203 12.226 11.290 10.401 9.565 8.788 8.075 7.430 6.856 6.353 5.920 5.555 5.254 5.010 4.816 4.663 4.542 4.442 4.354 4.269 4.178 4.074 3.953 3.809 3.642 3.452 3.241 3.012 2.768 2.516 2.261 2.007 1.761 1.526 1.306 1.104 0.921 0.759 
0.420 0.507 0.610 0.730 0.872 1.037 1.231 1.456 1.717 2.019 2.368 2.770 3.231 3.759 4.360 5.042 5.811 6.675 7.640 8.709 9.885 11.168 12.556 14.042 15.618 17.269 18.979 20.727 22.488 24.237 25.945 27.583 29.123 30.538 31.804 32.901 33.813 34.530 35.047 35.363 35.486 35.423 35.189 34.801 34.276 33.632 32.888 32.061 31.166 30.216 29.223 28.195 27.138 26.058 24.957 23.840 22.708 21.563 20.410 19.252 18.093 16.940 15.800 14.678 13.585 12.527 11.514 10.552 9.649 8.811 8.042 7.346 6.724 6.176 5.700 5.292 4.946 4.656 4.414 4.211 4.039 3.889 3.752 3.620 3.487 3.347 3.197 3.034 2.858 2.670 2.470 2.263 2.052 1.839 1.630 1.429 1.237 1.058 0.894 0.746 0.615 
0.458 0.552 0.663 0.794 0.947 1.126 1.333 1.575 1.853 2.175 2.544 2.967 3.449 3.997 4.617 5.316 6.099 6.972 7.940 9.005 10.170 11.432 12.790 14.236 15.762 17.355 19.000 20.678 22.368 24.046 25.689 27.272 28.770 30.160 31.423 32.541 33.500 34.292 34.910 35.355 35.629 35.739 35.694 35.507 35.188 34.752 34.211 33.577 32.860 32.070 31.215 30.299 29.329 28.308 27.240 26.129 24.978 23.792 22.576 21.336 20.081 18.819 17.559 16.311 15.086 13.893 12.744 11.647 10.611 9.643 8.747 7.928 7.188 6.526 5.942 5.430 4.988 4.607 4.282 4.004 3.765 3.556 3.370 3.199 3.036 2.878 2.718 2.556 2.388 2.215 2.039 1.859 1.679 1.500 1.327 1.160 1.003 0.857 0.723 0.603 0.497 
0.497 0.599 0.719 0.861 1.026 1.218 1.442 1.700 1.998 2.340 2.732 3.178 3.684 4.257 4.902 5.624 6.428 7.320 8.303 9.378 10.548 11.809 13.159 14.591 16.097 17.665 19.280 20.927 22.586 24.237 25.859 27.429 28.928 30.335 31.632 32.805 33.839 34.728 35.465 36.048 36.477 36.757 36.893 36.891 36.761 36.509 36.144 35.674 35.105 34.443 33.693 32.858 31.943 30.951 29.886 28.752 27.555 26.300 24.997 23.653 22.279 20.887 19.489 18.097 16.725 15.385 14.088 12.847 11.669 10.564 9.538 8.593 7.734 6.959 6.268 5.657 5.122 4.655 4.251 3.902 3.599 3.336 3.103 2.894 2.703 2.524 2.353 2.187 2.023 1.861 1.700 1.540 1.384 1.231 1.085 0.946 0.816 0.696 0.586 0.489 0.402 
0.538 0.648 0.778 0.930 1.108 1.315 1.555 1.832 2.151 2.515 2.931 3.403 3.937 4.539 5.213 5.964 6.798 7.718 8.726 9.825 11.014 12.292 13.655 15.097 16.610 18.182 19.800 21.450 23.114 24.775 26.414 28.010 29.546 31.004 32.367 33.621 34.756 35.761 36.630 37.360 37.948 38.396 38.705 38.879 38.921 38.836 38.627 38.298 37.852 37.293 36.622 35.842 34.956 33.967 32.879 31.697 30.429 29.083 27.668 26.198 24.684 23.143 21.588 20.035 18.500 16.998 15.542 14.145 12.818 11.570 10.407 9.334 8.354 7.466 6.670 5.961 5.335 4.785 4.306 3.889 3.526 3.210 2.933 2.688 2.468 2.269 2.084 1.911 1.747 1.590 1.439 1.294 1.154 1.021 0.896 0.778 0.669 0.569 0.478 0.398 0.327 
0.580 0.699 0.839 1.003 1.194 1.416 1.674 1.970 2.310 2.699 3.141 3.642 4.207 4.841 5.549 6.335 7.205 8.161 9.206 10.340 11.564 12.875 14.270 15.743 17.285 18.887 20.536 22.219 23.920 25.623 27.310 28.965 30.569 32.106 33.562 34.923 36.177 37.315 38.329 39.214 39.965 40.581 41.060 41.402 41.607 41.676 41.608 41.404 41.063 40.587 39.976 39.229 38.350 37.341 36.208 34.956 33.593 32.132 30.585 28.966 27.292 25.580 23.850 22.119 20.405 18.726 17.099 15.536 14.051 12.652 11.348 10.143 9.040 8.038 7.136 6.330 5.615 4.985 4.433 3.951 3.531 3.164 2.845 2.564 2.316 2.094 1.894 1.712 1.545 1.389 1.244 1.108 0.980 0.861 0.750 0.648 0.555 0.470 0.394 0.327 0.269 
0.623 0.751 0.901 1.077 1.282 1.521 1.796 2.113 2.476 2.890 3.361 3.893 4.491 5.161 5.907 6.735 7.647 8.647 9.736 10.917 12.188 13.547 14.991 16.513 18.105 19.760 21.464 23.206 24.971 26.743 28.506 30.246 31.944 33.586 35.158 36.646 38.038 39.324 40.495 41.543 42.463 43.250 43.899 44.406 44.769 44.984 45.047 44.957 44.709 44.301 43.733 43.003 42.112 41.064 39.864 38.520 37.042 35.444 33.741 31.952 30.096 28.195 26.269 24.342 22.434 20.565 18.753 17.014 15.361 13.805 12.354 11.013 9.783 8.666 7.658 6.756 5.953 5.244 4.621 4.076 3.600 3.185 2.823 2.507 2.230 1.986 1.770 1.577 1.403 1.246 1.102 0.971 0.851 0.741 0.641 0.550 0.468 0.395 0.330 0.273 0.224 
0.668 0.804 0.965 1.154 1.373 1.628 1.922 2.260 2.648 3.089 3.589 4.154 4.788 5.498 6.286 7.159 8.119 9.170 10.313 11.549 12.878 14.297 15.804 17.391 19.052 20.778 22.558 24.380 26.231 28.096 29.959 31.807 33.622 35.391 37.099 38.732 40.279 41.727 43.067 44.290 45.387 46.350 47.173 47.847 48.367 48.725 48.916 48.932 48.767 48.418 47.880 47.151 46.232 45.127 43.841 42.384 40.769 39.011 37.131 35.149 33.090 30.978 28.839 26.698 24.579 22.505 20.496 18.569 16.740 15.020 13.416 11.934 10.576 9.341 8.227 7.228 6.339 5.552 4.859 4.252 3.721 3.259 2.856 2.506 2.200 1.934 1.700 1.493 1.311 1.149 1.004 0.875 0.759 0.655 0.561 0.478 0.404 0.339 0.282 0.233 0.190 
0.713 0.859 1.031 1.232 1.466 1.737 2.051 2.411 2.823 3.293 3.824 4.424 5.097 5.848 6.682 7.604 8.617 9.724 10.927 12.227 13.624 15.114 16.695 18.361 20.106 21.920 23.793 25.714 27.670 29.646 31.630 33.605 35.558 37.472 39.334 41.131 42.849 44.475 45.998 47.407 48.692 49.841 50.844 51.691 52.371 52.875 53.191 53.310 53.224 52.924 52.406 51.666 50.704 49.523 48.132 46.541 44.766 42.827 40.746 38.549 36.264 33.921 31.548 29.175 26.829 24.536 22.318 20.194 18.180 16.289 14.527 12.901 11.411 10.057 8.836 7.740 6.765 5.901 5.139 4.471 3.886 3.377 2.934 2.550 2.215 1.925 1.672 1.452 1.259 1.090 0.942 0.811 0.696 0.595 0.506 0.427 0.359 0.299 0.247 0.203 0.165 
0.759 0.914 1.097 1.311 1.560 1.849 2.182 2.565 3.003 3.501 4.065 4.701 5.413 6.209 7.091 8.065 9.135 10.304 11.573 12.944 14.415 15.986 17.651 19.408 21.248 23.163 25.143 27.179 29.256 31.362 33.482 35.603 37.710 39.788 41.823 43.800 45.705 47.525 49.247 50.858 52.343 53.690 54.884 55.913 56.761 57.415 57.859 58.082 58.070 57.814 57.306 56.541 55.520 54.246 52.729 50.982 49.025 46.880 44.574 42.139 39.607 37.010 34.385 31.762 29.174 26.647 24.208 21.877 19.671 17.601 15.677 13.903 12.280 10.806 9.476 8.284 7.222 6.281 5.452 4.723 4.086 3.531 3.048 2.629 2.266 1.952 1.680 1.444 1.239 1.062 0.908 0.774 0.658 0.557 0.469 0.393 0.328 0.272 0.223 0.182 0.148 
0.807 0.971 1.165 1.391 1.655 1.961 2.314 2.720 3.184 3.712 4.309 4.982 5.736 6.577 7.510 8.539 9.669 10.903 12.243 13.689 15.242 16.899 18.658 20.514 22.459 24.487 26.587 28.749 30.961 33.211 35.484 37.767 40.045 42.304 44.528 46.703 48.814 50.846 52.784 54.613 56.316 57.876 59.276 60.499 61.525 62.336 62.913 63.240 63.300 63.081 62.573 61.771 60.675 59.289 57.624 55.698 53.534 51.158 48.603 45.905 43.101 40.231 37.333 34.443 31.597 28.825 26.154 23.607 21.201 18.949 16.858 14.933 13.175 11.579 10.141 8.852 7.705 6.687 5.791 5.003 4.314 3.713 3.191 2.738 2.346 2.007 1.715 1.462 1.245 1.058 0.897 0.758 0.639 0.536 0.448 0.373 0.309 0.254 0.208 0.169 0.136 
0.856 1.030 1.234 1.473 1.751 2.075 2.448 2.877 3.367 3.924 4.555 5.266 6.062 6.950 7.934 9.021 10.213 11.515 12.928 14.454 16.093 17.843 19.702 21.664 23.723 25.872 28.102 30.403 32.762 35.169 37.609 40.069 42.534 44.990 47.422 49.814 52.150 54.414 56.588 58.655 60.594 62.386 64.009 65.440 66.656 67.633 68.348 68.781 68.911 68.722 68.204 67.350 66.160 64.640 62.805 60.674 58.276 55.643 52.813 49.827 46.729 43.564 40.374 37.200 34.082 31.053 28.141 25.370 22.759 20.319 18.059 15.982 14.087 12.369 10.823 9.438 8.205 7.113 6.149 5.303 4.562 3.917 3.355 2.868 2.447 2.084 1.771 1.502 1.271 1.072 0.903 0.758 0.634 0.529 0.439 0.363 0.299 0.244 0.199 0.161 0.130 
0.911 1.092 1.306 1.557 1.850 2.190 2.583 3.034 3.550 4.137 4.801 5.550 6.389 7.324 8.361 9.505 10.761 12.133 13.623 15.232 16.960 18.807 20.769 22.843 25.023 27.301 29.670 32.118 34.636 37.212 39.832 42.484 45.153 47.825 50.483 53.112 55.694 58.212 60.645 62.972 65.170 67.214 69.078 70.734 72.153 73.306 74.165 74.704 74.900 74.733 74.192 73.268 71.963 70.286 68.254 65.892 63.232 60.314 57.182 53.883 50.468 46.986 43.486 40.014 36.611 33.313 30.152 27.152 24.331 21.701 19.271 17.040 15.009 13.170 11.516 10.036 8.718 7.552 6.522 5.618 4.827 4.137 3.536 3.016 2.566 2.178 1.844 1.557 1.312 1.102 0.923 0.770 0.641 0.531 0.439 0.361 0.296 0.241 0.195 0.157 0.126 
0.974 1.163 1.386 1.648 1.954 2.309 2.721 3.194 3.735 4.350 5.048 5.834 6.714 7.697 8.786 9.989 11.310 12.752 14.319 16.012 17.832 19.779 21.849 24.040 26.345 28.759 31.273 33.879 36.565 39.322 42.136 44.995 47.885 50.790 53.696 56.584 59.436 62.232 64.949 67.561 70.041 72.360 74.485 76.383 78.018 79.356 80.363 81.008 81.263 81.108 80.527 79.513 78.070 76.208 73.950 71.327 68.376 65.144 61.682 58.045 54.289 50.471 46.645 42.860 39.161 35.587 32.171 28.937 25.904 23.084 20.482 18.099 15.931 13.972 12.212 10.638 9.238 7.998 6.905 5.944 5.102 4.368 3.730 3.176 2.697 2.284 1.929 1.625 1.364 1.142 0.953 0.792 0.657 0.542 0.446 0.365 0.298 0.242 0.196 0.157 0.126 
1.057 1.250 1.480 1.751 2.068 2.438 2.866 3.359 3.923 4.566 5.295 6.117 7.039 8.067 9.208 10.469 11.853 13.366 15.010 16.789 18.702 20.750 22.930 25.241 27.676 30.231 32.898 35.669 38.534 41.484 44.506 47.588 50.717 53.877 57.052 60.224 63.372 66.472 69.499 72.423 75.212 77.829 80.236 82.392 84.256 85.787 86.944 87.690 87.996 87.836 87.196 86.068 84.458 82.382 79.867 76.950 73.676 70.100 66.281 62.281 58.163 53.991 49.823 45.713 41.710 37.854 34.178 30.709 27.464 24.453 21.681 19.148 16.847 14.770 12.906 11.240 9.759 8.448 7.291 6.275 5.385 4.608 3.931 3.345 2.837 2.400 2.023 1.701 1.425 1.190 0.991 0.822 0.679 0.559 0.458 0.374 0.305 0.247 0.199 0.159 0.127 
1.175 1.370 1.603 1.879 2.205 2.585 3.027 3.537 4.122 4.790 5.548 6.403 7.363 8.436 9.627 10.943 12.389 13.971 15.693 17.556 19.562 21.712 24.004 26.437 29.006 31.707 34.533 37.477 40.532 43.687 46.931 50.254 53.642 57.079 60.549 64.030 67.502 70.936 74.302 77.566 80.689 83.628 86.338 88.769 90.872 92.600 93.905 94.746 95.088 94.904 94.179 92.909 91.101 88.777 85.970 82.725 79.096 75.146 70.942 66.555 62.056 57.513 52.990 48.547 44.233 40.091 36.155 32.451 28.995 25.796 22.858 20.177 17.747 15.555 13.590 11.836 10.276 8.896 7.678 6.608 5.670 4.851 4.138 3.519 2.983 2.521 2.124 1.783 1.492 1.244 1.034 0.856 0.706 0.580 0.475 0.387 0.314 0.254 0.204 0.164 0.130 
1.360 1.550 1.780 2.057 2.384 2.770 3.221 3.743 4.344 5.032 5.815 6.700 7.695 8.807 10.044 11.413 12.919 14.568 16.363 18.309 20.407 22.659 25.064 27.620 30.326 33.178 36.170 39.296 42.551 45.924 49.408 52.991 56.659 60.398 64.188 68.009 71.834 75.632 79.368 83.001 86.485 89.770 92.800 95.519 97.869 99.794 101.241 102.164 102.523 102.290 101.452 100.005 97.963 95.354 92.219 88.610 84.593 80.239 75.624 70.828 65.928 61.001 56.114 51.331 46.703 42.275 38.081 34.145 30.482 27.101 24.001 21.178 18.622 16.321 14.259 12.419 10.785 9.337 8.061 6.938 5.954 5.095 4.346 3.695 3.132 2.646 2.228 1.869 1.563 1.302 1.081 0.894 0.736 0.604 0.494 0.402 0.326 0.263 0.211 0.169 0.135 
1.662 1.837 2.056 2.322 2.644 3.027 3.477 4.004 4.614 5.315 6.115 7.023 8.046 9.193 10.471 11.886 13.447 15.158 17.024 19.049 21.237 23.589 26.106 28.787 31.633 34.639 37.803 41.121 44.587 48.195 51.935 55.798 59.771 63.838 67.979 72.169 76.380 80.574 84.711 88.743 92.613 96.264 99.631 102.648 105.248 107.366 108.943 109.928 110.278 109.966 108.979 107.318 105.002 102.068 98.565 94.557 90.118 85.330 80.280 75.055 69.741 64.419 59.162 54.036 49.095 44.384 39.936 35.774 31.911 28.353 25.099 22.141 19.466 17.060 14.906 12.985 11.279 9.769 8.436 7.263 6.235 5.336 4.552 3.871 3.281 2.772 2.333 1.957 1.636 1.362 1.130 0.934 0.769 0.630 0.515 0.419 0.339 0.273 0.220 0.176 0.140 
2.159 2.306 2.498 2.742 3.043 3.409 3.848 4.366 4.972 5.675 6.482 7.402 8.444 9.615 10.925 12.380 13.987 15.753 17.684 19.783 22.056 24.505 27.132 29.939 32.925 36.091 39.434 42.953 46.644 50.501 54.518 58.685 62.988 67.412 71.934 76.527 81.156 85.780 90.349 94.806 99.088 103.124 106.839 110.158 113.004 115.305 116.993 118.014 118.324 117.896 116.718 114.800 112.167 108.865 104.954 100.509 95.617 90.368 84.861 79.190 73.450 67.727 62.098 56.631 51.382 46.394 41.699 37.320 33.267 29.542 26.142 23.056 20.270 17.766 15.526 13.529 11.755 10.185 8.799 7.579 6.509 5.572 4.755 4.045 3.429 2.897 2.438 2.045 1.709 1.423 1.180 0.975 0.802 0.657 0.537 0.436 0.353 0.285 0.228 0.183 0.145 
2.973 3.070 3.215 3.415 3.676 4.006 4.412 4.904 5.488 6.175 6.972 7.888 8.933 10.115 11.442 12.923 14.566 16.376 18.361 20.527 22.878 25.418 28.152 31.082 34.211 37.540 41.070 44.800 48.729 52.853 57.168 61.663 66.325 71.137 76.073 81.102 86.183 91.268 96.299 101.208 105.921 110.356 114.427 118.046 121.129 123.593 125.367 126.391 126.621 126.032 124.618 122.395 119.399 115.684 111.325 106.408 101.030 95.297 89.314 83.186 77.013 70.887 64.888 59.086 53.536 48.281 43.352 38.767 34.535 30.654 27.119 23.915 21.026 18.432 16.112 14.045 12.209 10.583 9.147 7.883 6.773 5.801 4.952 4.214 3.573 3.019 2.542 2.132 1.782 1.483 1.230 1.016 0.836 0.685 0.559 0.454 0.367 0.296 0.238 0.190 0.151 
4.274 4.293 4.363 4.490 4.682 4.947 5.294 5.731 6.267 6.911 7.673 8.562 9.587 10.758 12.083 13.571 15.230 17.068 19.093 21.312 23.730 26.353 29.187 32.237 35.508 39.003 42.725 46.677 50.859 55.269 59.903 64.753 69.803 75.035 80.419 85.918 91.485 97.062 102.582 107.965 113.125 117.967 122.392 126.303 129.604 132.204 134.029 135.015 135.119 134.320 132.618 130.039 126.630 122.458 117.610 112.186 106.297 100.057 93.585 86.992 80.384 73.858 67.497 61.370 55.532 50.025 44.875 40.099 35.702 31.679 28.020 24.710 21.728 19.052 16.660 14.529 12.636 10.959 9.477 8.171 7.024 6.019 5.141 4.376 3.712 3.137 2.642 2.217 1.853 1.542 1.279 1.056 0.869 0.712 0.581 0.472 0.382 0.308 0.247 0.197 0.157 
6.295 6.201 6.158 6.174 6.259 6.420 6.669 7.013 7.463 8.029 8.720 9.547 10.519 11.647 12.939 14.406 16.056 17.898 19.941 22.192 24.660 27.352 30.276 33.439 36.848 40.509 44.429 48.612 53.060 57.775 62.752 67.983 73.452 79.135 85.000 91.003 97.087 103.185 109.217 115.091 120.707 125.956 130.728 134.912 138.403 141.104 142.935 143.833 143.757 142.692 140.647 137.658 133.786 129.112 123.737 117.775 111.350 104.589 97.618 90.558 83.520 76.603 69.891 63.454 57.346 51.604 46.252 41.302 36.756 32.606 28.838 25.433 22.368 19.620 17.165 14.976 13.032 11.309 9.785 8.442 7.261 6.225 5.319 4.530 3.844 3.250 2.738 2.297 1.920 1.599 1.326 1.095 0.901 0.738 0.603 0.490 0.396 0.319 0.256 0.205 0.163 
9.332 9.081 8.880 8.739 8.668 8.677 8.776 8.978 9.292 9.729 10.301 11.019 11.892 12.932 14.150 15.556 17.159 18.970 20.998 23.254 25.747 28.486 31.482 34.745 38.283 42.108 46.227 50.648 55.376 60.413 65.756 71.394 77.310 83.477 89.854 96.391 103.020 109.662 116.223 122.598 128.671 134.319 139.418 143.846 147.489 150.245 152.030 152.782 152.466 151.074 148.626 145.172 140.786 135.567 129.629 123.103 116.124 108.831 101.360 93.837 86.378 79.084 72.041 65.314 58.955 52.999 47.466 42.363 37.687 33.426 29.564 26.077 22.942 20.132 17.621 15.383 13.394 11.630 10.069 8.692 7.480 6.416 5.485 4.673 3.967 3.355 2.827 2.373 1.984 1.653 1.371 1.133 0.932 0.764 0.623 0.506 0.410 0.330 0.265 0.212 0.169 
13.735 13.282 12.873 12.521 12.237 12.033 11.923 11.920 12.034 12.280 12.670 13.216 13.929 14.823 15.909 17.199 18.703 20.435 22.404 24.624 27.104 29.859 32.901 36.242 39.895 43.874 48.189 52.852 57.868 63.242 68.969 75.038 81.428 88.106 95.023 102.119 109.316 116.518 123.618 130.494 137.014 143.041 148.438 153.070 156.816 159.570 161.246 161.787 161.164 159.380 156.468 152.492 147.545 141.739 135.209 128.096 120.552 112.724 104.757 96.782 88.919 81.269 73.916 66.924 60.341 54.196 48.505 43.270 38.484 34.131 30.191 26.637 23.444 20.582 18.025 15.745 13.718 11.918 10.326 8.919 7.680 6.591 5.638 4.805 4.081 3.453 2.911 2.444 2.044 1.703 1.413 1.167 0.961 0.787 0.643 0.522 0.423 0.341 0.273 0.219 0.174 
19.884 19.186 18.520 17.901 17.344 16.863 16.475 16.193 16.035 16.013 16.143 16.440 16.918 17.590 18.471 19.573 20.912 22.499 24.349 26.477 28.895 31.621 34.670 38.057 41.800 45.914 50.415 55.315 60.623 66.342 72.468 78.986 85.871 93.081 100.560 108.234 116.011 123.780 131.417 138.782 145.728 152.102 157.753 162.538 166.326 169.010 170.507 170.764 169.763 167.517 164.078 159.527 153.972 147.545 140.396 132.684 124.568 116.210 107.758 99.351 91.106 83.127 75.493 68.265 61.486 55.180 49.357 44.015 39.141 34.715 30.714 27.108 23.869 20.967 18.373 16.060 14.001 12.173 10.553 9.120 7.858 6.748 5.774 4.924 4.184 3.541 2.986 2.508 2.098 1.748 1.451 1.199 0.987 0.809 0.660 0.537 0.435 0.350 0.281 0.225 0.179 
28.142 27.169 26.207 25.273 24.386 23.565 22.827 22.193 21.680 21.306 21.090 21.049 21.201 21.562 22.148 22.977 24.064 25.426 27.080 29.043 31.333 33.970 36.973 40.361 44.156 48.377 53.042 58.165 63.758 69.823 76.354 83.331 90.722 98.478 106.529 114.788 123.146 131.477 139.635 147.465 154.801 161.475 167.323 172.193 175.951 178.488 179.726 179.620 178.164 175.388 171.360 166.180 159.977 152.900 145.115 136.795 128.113 119.236 110.320 101.505 92.909 84.632 76.750 69.320 62.377 55.940 50.014 44.590 39.651 35.173 31.128 27.486 24.214 21.283 18.663 16.324 14.241 12.390 10.748 9.295 8.013 6.884 5.894 5.028 4.274 3.619 3.053 2.565 2.146 1.789 1.485 1.228 1.011 0.829 0.676 0.550 0.445 0.359 0.288 0.230 0.183 
38.789 37.536 36.260 34.982 33.725 32.511 31.364 30.307 29.362 28.552 27.900 27.427 27.155 27.104 27.296 27.750 28.486 29.527 30.892 32.603 34.683 37.154 40.042 43.371 47.166 51.450 56.244 61.566 67.426 73.825 80.754 88.188 96.086 104.387 113.008 121.845 130.771 139.640 148.289 156.540 164.213 171.123 177.095 181.971 185.614 187.916 188.807 188.254 186.265 182.889 178.214 172.358 165.472 157.722 149.292 140.366 131.130 121.756 112.403 103.212 94.301 85.764 77.673 70.077 63.005 56.470 50.470 44.990 40.010 35.500 31.430 27.767 24.477 21.529 18.891 16.535 14.436 12.568 10.909 9.440 8.143 7.000 5.996 5.117 4.351 3.686 3.110 2.614 2.188 1.824 1.515 1.252 1.031 0.846 0.691 0.562 0.455 0.367 0.294 0.235 0.188 
51.944 50.442 48.869 47.250 45.611 43.981 42.386 40.855 39.417 38.100 36.930 35.937 35.145 34.583 34.276 34.249 34.529 35.141 36.113 37.471 39.244 41.461 44.152 47.347 51.075 55.364 60.239 65.718 71.812 78.519 85.826 93.701 102.090 110.919 120.090 129.479 138.940 148.307 157.393 166.005 173.941 181.006 187.014 191.801 195.231 197.201 197.652 196.563 193.963 189.919 184.540 177.967 170.370 161.935 152.859 143.340 133.570 123.728 113.974 104.448 95.263 86.509 78.249 70.527 63.364 56.765 50.722 45.214 40.216 35.696 31.619 27.950 24.655 21.701 19.056 16.692 14.583 12.704 11.035 9.555 8.246 7.092 6.078 5.190 4.415 3.741 3.158 2.655 2.223 1.854 1.539 1.273 1.049 0.860 0.702 0.571 0.463 0.373 0.300 0.240 0.191 
67.483 65.811 64.004 62.092 60.103 58.071 56.029 54.010 52.049 50.180 48.437 46.854 45.466 44.304 43.403 42.796 42.514 42.592 43.064 43.964 45.328 47.192 49.593 52.568 56.151 60.376 65.269 70.851 77.131 84.106 91.754 100.033 108.878 118.199 127.879 137.774 147.716 157.516 166.967 175.855 183.963 191.081 197.019 201.608 204.715 206.248 206.157 204.444 201.153 196.376 190.245 182.921 174.595 165.471 155.759 145.667 135.394 125.122 115.011 105.195 95.783 86.857 78.474 70.668 63.452 56.824 50.769 45.261 40.270 35.760 31.693 28.034 24.747 21.798 19.156 16.792 14.681 12.799 11.124 9.638 8.323 7.162 6.140 5.245 4.464 3.784 3.195 2.687 2.250 1.877 1.559 1.290 1.063 0.872 0.712 0.579 0.469 0.379 0.304 0.243 0.194 
84.974 83.262 81.338 79.233 76.981 74.617 72.180 69.708 67.241 64.821 62.490 60.288 58.257 56.440 54.876 53.610 52.681 52.134 52.010 52.355 53.211 54.626 56.644 59.309 62.664 66.746 71.586 77.206 83.612 90.798 98.732 107.363 116.611 126.366 136.492 146.822 157.166 167.310 177.027 186.084 194.249 201.301 207.044 211.312 213.977 214.958 214.224 211.795 207.738 202.169 195.242 187.143 178.079 168.272 157.943 147.309 136.573 125.917 115.497 105.443 95.856 86.808 78.349 70.502 63.272 56.651 50.615 45.134 40.173 35.692 31.654 28.020 24.754 21.821 19.191 16.836 14.730 12.850 11.176 9.689 8.371 7.207 6.182 5.283 4.497 3.813 3.221 2.709 2.270 1.894 1.573 1.302 1.073 0.880 0.719 0.585 0.474 0.383 0.307 0.246 0.196 
103.646 102.072 100.201 98.062 95.690 93.123 90.403 87.574 84.680 81.769 78.891 76.094 73.429 70.946 68.697 66.734 65.109 63.876 63.090 62.804 63.076 63.961 65.515 67.791 70.839 74.702 79.416 85.003 91.468 98.798 106.952 115.866 125.443 135.554 146.040 156.711 167.352 177.727 187.588 196.684 204.769 211.616 217.025 220.835 222.929 223.240 221.757 218.522 213.627 207.213 199.457 190.567 180.767 170.293 159.378 148.243 137.091 126.103 115.430 105.193 95.484 86.367 77.879 70.035 62.831 56.251 50.264 44.836 39.928 35.497 31.504 27.909 24.675 21.770 19.161 16.823 14.729 12.858 11.190 9.706 8.390 7.227 6.202 5.302 4.515 3.830 3.235 2.722 2.281 1.904 1.582 1.310 1.079 0.886 0.724 0.589 0.478 0.385 0.310 0.248 0.198 
122.413 121.192 119.584 117.616 115.321 112.739 109.911 106.883 103.706 100.433 97.117 93.816 90.588 87.495 84.598 81.959 79.643 77.717 76.247 75.301 74.948 75.256 76.294 78.124 80.806 84.391 88.916 94.406 100.864 108.267 116.568 125.685 135.504 145.875 156.615 167.511 178.323 188.793 198.652 207.635 215.484 221.969 226.892 230.098 231.485 231.005 228.668 224.541 218.743 211.439 202.830 193.143 182.620 171.507 160.044 148.456 136.943 125.682 114.815 104.454 94.680 85.545 77.077 69.279 62.140 55.633 49.725 44.375 39.541 35.178 31.245 27.703 24.514 21.645 19.067 16.753 14.678 12.822 11.165 9.690 8.381 7.222 6.200 5.302 4.517 3.833 3.239 2.726 2.285 1.907 1.586 1.313 1.082 0.888 0.726 0.591 0.479 0.387 0.311 0.249 0.198 
139.960 139.320 138.206 136.643 134.660 132.292 129.580 126.572 123.317 119.873 116.297 112.655 109.011 105.434 101.998 98.776 95.844 93.283 91.172 89.594 88.632 88.368 88.884 90.254 92.548 95.823 100.123 105.471 111.868 119.285 127.660 136.898 146.866 157.390 168.266 179.255 190.094 200.503 210.198 218.898 226.341 232.295 236.569 239.019 239.560 238.167 234.875 229.778 223.020 214.792 205.316 194.839 183.615 171.901 159.938 147.952 136.140 124.668 113.669 103.244 93.462 84.362 75.960 68.250 61.211 54.811 49.008 43.759 39.018 34.740 30.882 27.405 24.271 21.449 18.909 16.627 14.578 12.743 11.103 9.641 8.342 7.192 6.177 5.284 4.503 3.822 3.231 2.720 2.280 1.904 1.583 1.311 1.081 0.888 0.726 0.591 0.479 0.387 0.311 0.249 0.199 
154.888 155.035 154.640 153.717 152.290 150.387 148.045 145.308 142.227 138.856 135.258 131.499 127.652 123.792 120.001 116.363 112.966 109.903 107.269 105.161 103.676 102.911 102.961 103.914 105.848 108.830 112.907 118.103 124.413 131.803 140.198 149.485 159.511 170.082 180.970 191.912 202.623 212.806 222.162 230.402 237.260 242.509 245.967 247.508 247.069 244.647 240.307 234.170 226.406 217.231 206.888 195.638 183.748 171.478 159.072 146.751 134.703 123.086 112.020 101.592 91.857 82.842 74.551 66.969 60.064 53.798 48.126 42.999 38.370 34.191 30.421 27.019 23.951 21.184 18.691 16.447 14.430 12.622 11.003 9.559 8.275 7.137 6.132 5.248 4.473 3.798 3.211 2.704 2.268 1.894 1.575 1.305 1.076 0.884 0.723 0.589 0.477 0.385 0.310 0.248 0.198 
165.891 166.983 167.487 167.407 166.757 165.557 163.837 161.633 158.993 155.968 152.620 149.015 145.230 141.344 137.445 133.628 129.989 126.634 123.671 121.210 119.363 118.242 117.954 118.600 120.268 123.031 126.940 132.019 138.260 145.616 154.001 163.286 173.298 183.821 194.603 205.361 215.793 225.584 234.427 242.027 248.122 252.494 254.976 255.463 253.916 250.363 244.895 237.661 228.861 218.731 207.533 195.540 183.028 170.258 157.472 144.883 132.669 120.973 109.903 99.531 89.897 81.016 72.878 65.458 58.719 52.614 47.094 42.107 37.604 33.539 29.868 26.552 23.557 20.853 18.413 16.214 14.236 12.459 10.867 9.446 8.181 7.058 6.066 5.193 4.428 3.761 3.181 2.679 2.247 1.877 1.562 1.294 1.067 0.877 0.717 0.584 0.474 0.383 0.308 0.247 0.197 
171.943 174.060 175.573 176.475 176.768 176.462 175.577 174.142 172.194 169.781 166.959 163.794 160.359 156.738 153.022 149.310 145.708 142.331 139.298 136.730 134.754 133.493 133.067 133.586 135.149 137.832 141.689 146.743 152.978 160.339 168.726 177.990 187.941 198.342 208.920 219.374 229.386 238.632 246.797 253.590 258.757 262.093 263.453 262.757 259.994 255.224 248.567 240.201 230.352 219.275 207.249 194.558 181.480 168.275 155.178 142.391 130.081 118.375 107.364 97.104 87.621 78.917 70.970 63.745 57.198 51.276 45.927 41.096 36.734 32.792 29.230 26.009 23.095 20.461 18.081 15.933 13.997 12.257 10.697 9.302 8.059 6.956 5.980 5.121 4.368 3.711 3.139 2.645 2.219 1.854 1.543 1.278 1.055 0.867 0.709 0.578 0.469 0.379 0.305 0.244 0.195 
172.461 175.586 178.124 180.057 181.375 182.078 182.173 181.679 180.624 179.047 176.997 174.534 171.729 168.663 165.428 162.127 158.869 155.776 152.975 150.597 148.779 147.652 147.348 147.983 149.662 152.465 156.444 161.619 167.966 175.419 183.860 193.126 203.005 213.241 223.546 233.601 243.078 251.647 258.995 264.837 268.933 271.100 271.217 269.235 265.174 259.127 251.245 241.735 230.846 218.853 206.045 192.713 179.136 165.569 152.236 139.327 126.991 115.341 104.449 94.355 85.071 76.583 68.860 61.859 55.526 49.807 44.643 39.981 35.769 31.961 28.516 25.396 22.570 20.012 17.697 15.604 13.717 12.018 10.493 9.129 7.912 6.832 5.875 5.033 4.294 3.649 3.087 2.602 2.183 1.825 1.519 1.259 1.039 0.854 0.698 0.569 0.462 0.373 0.300 0.241 0.192 
167.391 171.408 174.887 177.801 180.129 181.858 182.986 183.519 183.476 182.885 181.787 180.234 178.290 176.034 173.553 170.950 168.337 165.837 163.582 161.711 160.363 159.679 159.794 160.829 162.892 166.060 170.384 175.874 182.496 190.169 198.761 208.089 217.923 227.991 237.986 247.581 256.441 264.235 270.658 275.438 278.356 279.254 278.043 274.707 269.301 261.951 252.841 242.204 230.311 217.452 203.928 190.030 176.034 162.185 148.698 135.743 123.455 111.925 101.209 91.332 82.288 74.052 66.582 59.827 53.728 48.225 43.260 38.777 34.724 31.056 27.733 24.721 21.988 19.510 17.265 15.233 13.398 11.745 10.259 8.929 7.742 6.686 5.752 4.929 4.206 3.575 3.026 2.550 2.141 1.789 1.490 1.235 1.019 0.838 0.686 0.559 0.454 0.367 0.295 0.237 0.189 
157.220 161.928 166.174 169.922 173.144 175.817 177.928 179.476 180.466 180.918 180.862 180.343 179.416 178.154 176.639 174.971 173.261 171.631 170.213 169.148 168.578 168.646 169.485 171.220 173.951 177.754 182.669 188.695 195.785 203.841 212.712 222.196 232.046 241.972 251.658 260.768 268.964 275.925 281.355 285.003 286.678 286.251 283.670 278.954 272.197 263.557 253.251 241.538 228.706 215.061 200.906 186.532 172.209 158.171 144.614 131.695 119.525 108.179 97.695 88.079 79.313 71.360 64.168 57.678 51.827 46.553 41.795 37.497 33.610 30.087 26.892 23.991 21.356 18.963 16.791 14.824 13.045 11.440 9.997 8.704 7.549 6.522 5.612 4.810 4.106 3.490 2.955 2.491 2.092 1.749 1.456 1.207 0.997 0.819 0.671 0.547 0.444 0.359 0.289 0.232 0.185 
142.897 148.036 152.807 157.168 161.086 164.531 167.485 169.935 171.881 173.332 174.310 174.850 175.001 174.827 174.406 173.832 173.210 172.661 172.314 172.307 172.781 173.875 175.720 178.431 182.105 186.803 192.555 199.343 207.101 215.711 225.003 234.755 244.702 254.541 263.945 272.575 280.099 286.204 290.615 293.106 293.517 291.757 287.810 281.736 273.666 263.793 252.364 239.659 225.986 211.658 196.980 182.240 167.696 153.567 140.033 127.231 115.252 104.153 93.951 84.640 76.186 68.541 61.646 55.437 49.846 44.808 40.264 36.157 32.438 29.065 26.001 23.214 20.679 18.374 16.280 14.380 12.660 11.107 9.709 8.456 7.336 6.340 5.457 4.678 3.994 3.396 2.876 2.425 2.036 1.703 1.418 1.176 0.971 0.798 0.654 0.533 0.433 0.350 0.282 0.226 0.180 
125.688 130.975 135.993 140.701 145.063 149.048 152.630 155.795 158.533 160.849 162.758 164.288 165.480 166.392 167.095 167.677 168.239 168.896 169.772 170.999 172.713 175.044 178.116 182.033 186.877 192.695 199.496 207.244 215.850 225.173 235.020 245.151 255.280 265.095 274.260 282.439 289.308 294.569 297.972 299.323 298.495 295.438 290.177 282.812 273.513 262.506 250.064 236.490 222.103 207.222 192.151 177.168 162.520 148.409 134.996 122.395 110.680 99.887 90.018 81.049 72.937 65.623 59.043 53.126 47.803 43.008 38.681 34.768 31.220 27.998 25.067 22.397 19.965 17.750 15.735 13.905 12.247 10.749 9.399 8.188 7.106 6.142 5.288 4.534 3.872 3.293 2.789 2.352 1.976 1.652 1.376 1.141 0.943 0.775 0.635 0.518 0.421 0.340 0.274 0.220 0.175 
106.991 112.153 117.144 121.925 126.460 130.721 134.680 138.321 141.632 144.614 147.278 149.647 151.759 153.664 155.430 157.139 158.885 160.778 162.935 165.481 168.542 172.238 176.678 181.952 188.123 195.219 203.224 212.078 221.665 231.820 242.326 252.920 263.302 273.147 282.118 289.883 296.129 300.581 303.016 303.275 301.271 296.994 290.513 281.968 271.564 259.560 246.253 231.962 217.016 201.735 186.417 171.332 156.707 142.729 129.536 117.223 105.844 95.416 85.926 77.336 69.593 62.631 56.378 50.763 45.714 41.165 37.058 33.340 29.965 26.895 24.098 21.546 19.219 17.096 15.162 13.405 11.810 10.369 9.070 7.903 6.860 5.931 5.107 4.380 3.741 3.182 2.695 2.274 1.910 1.598 1.331 1.104 0.912 0.750 0.615 0.501 0.407 0.329 0.265 0.213 0.170 
88.151 92.959 97.681 102.285 106.740 111.019 115.100 118.965 122.605 126.020 129.220 132.227 135.076 137.815 140.508 143.233 146.079 149.151 152.557 156.414 160.836 165.929 171.787 178.481 186.050 194.498 203.783 213.814 224.449 235.495 246.710 257.809 268.479 278.385 287.190 294.569 300.227 303.914 305.438 304.678 301.588 296.200 288.625 279.043 267.692 254.859 240.862 226.032 210.703 195.192 179.789 164.749 150.283 136.555 123.685 111.746 100.774 90.768 81.700 73.524 66.174 59.580 53.667 48.360 43.590 39.290 35.405 31.882 28.680 25.763 23.100 20.668 18.445 16.416 14.566 12.882 11.354 9.971 8.724 7.603 6.601 5.708 4.916 4.217 3.602 3.065 2.596 2.190 1.840 1.540 1.283 1.064 0.879 0.724 0.593 0.484 0.393 0.318 0.256 0.205 0.164 
70.308 74.594 78.865 83.094 87.258 91.335 95.308 99.165 102.899 106.514 110.021 113.445 116.819 120.194 123.632 127.207 131.007 135.130 139.678 144.757 150.469 156.906 164.143 172.226 181.173 190.958 201.510 212.709 224.380 236.304 248.212 259.802 270.745 280.702 289.338 296.340 301.433 304.396 305.070 303.374 299.303 292.932 284.412 273.958 261.840 248.367 233.873 218.698 203.175 187.615 172.294 157.452 143.280 129.922 117.475 105.994 95.496 85.966 77.363 69.629 62.694 56.484 50.920 45.928 41.439 37.390 33.726 30.400 27.371 24.606 22.079 19.766 17.650 15.716 13.950 12.341 10.880 9.557 8.364 7.291 6.331 5.475 4.716 4.046 3.457 2.941 2.492 2.103 1.767 1.479 1.232 1.023 0.845 0.695 0.570 0.465 0.378 0.306 0.246 0.198 0.158 
54.298 57.967 61.671 65.393 69.117 72.829 76.517 80.177 83.807 87.416 91.022 94.651 98.343 102.148 106.131 110.366 114.938 119.941 125.472 131.626 138.493 146.148 154.645 164.010 174.232 185.255 196.979 209.250 221.867 234.580 247.097 259.099 270.246 280.197 288.624 295.228 299.759 302.024 301.903 299.353 294.411 287.192 277.884 266.734 254.038 240.124 225.334 210.013 194.487 179.058 163.987 149.494 135.748 122.873 110.945 100.000 90.039 81.033 72.931 65.666 59.166 53.351 48.145 43.473 39.268 35.470 32.028 28.898 26.042 23.430 21.038 18.845 16.837 14.998 13.317 11.785 10.393 9.131 7.992 6.968 6.052 5.235 4.510 3.869 3.306 2.814 2.384 2.012 1.691 1.415 1.180 0.979 0.809 0.666 0.546 0.445 0.362 0.293 0.236 0.190 0.151 
40.621 43.643 46.735 49.887 53.089 56.336 59.624 62.955 66.337 69.784 73.321 76.981 80.808 84.858 89.198 93.903 99.060 104.758 111.088 118.136 125.981 134.680 144.267 154.743 166.070 178.165 190.894 204.075 217.475 230.820 243.799 256.076 267.306 277.148 285.285 291.439 295.383 296.960 296.085 292.754 287.045 279.111 269.170 257.499 244.412 230.251 215.363 200.089 184.746 169.621 154.958 140.953 127.755 115.467 104.144 93.805 84.436 75.995 68.425 61.652 55.601 50.192 45.348 40.999 37.080 33.534 30.314 27.379 24.696 22.237 19.980 17.909 16.008 14.265 12.671 11.217 9.894 8.695 7.612 6.638 5.765 4.988 4.298 3.688 3.152 2.682 2.273 1.919 1.613 1.350 1.125 0.934 0.772 0.636 0.521 0.425 0.346 0.280 0.226 0.181 0.145 
29.456 31.860 34.352 36.930 39.591 42.337 45.172 48.106 51.154 54.340 57.694 61.258 65.083 69.230 73.769 78.781 84.350 90.565 97.511 105.267 113.896 123.441 133.916 145.296 157.518 170.469 183.987 197.861 211.831 225.602 238.844 251.213 262.360 271.954 279.689 285.311 288.622 289.499 287.895 283.845 277.462 268.933 258.506 246.477 233.178 218.953 204.150 189.101 174.111 159.447 145.331 131.938 119.395 107.782 97.137 87.461 78.728 70.886 63.870 57.605 52.013 47.016 42.538 38.513 34.880 31.586 28.587 25.848 23.337 21.031 18.910 16.960 15.167 13.522 12.015 10.639 9.387 8.251 7.224 6.301 5.474 4.736 4.081 3.503 2.994 2.548 2.160 1.823 1.533 1.283 1.070 0.888 0.734 0.605 0.496 0.405 0.329 0.266 0.215 0.172 0.138 
20.727 22.580 24.528 26.574 28.724 30.984 33.367 35.889 38.575 41.455 44.568 47.963 51.698 55.839 60.464 65.655 71.497 78.078 85.477 93.764 102.990 113.183 124.334 136.398 149.284 162.854 176.917 191.237 205.532 219.489 232.766 245.014 255.889 265.069 272.269 277.259 279.875 280.027 277.707 272.985 266.010 256.995 246.213 233.976 220.621 206.497 191.942 177.275 162.784 148.714 135.264 122.586 110.784 99.916 90.004 81.034 72.967 65.745 59.298 53.550 48.422 43.838 39.726 36.024 32.675 29.631 26.853 24.307 21.968 19.815 17.830 16.001 14.318 12.770 11.352 10.055 8.874 7.801 6.832 5.960 5.179 4.481 3.862 3.315 2.834 2.412 2.045 1.727 1.452 1.216 1.014 0.842 0.696 0.573 0.470 0.384 0.312 0.253 0.204 0.164 0.131 
14.179 15.569 17.055 18.643 20.343 22.170 24.142 26.282 28.620 31.196 34.056 37.256 40.860 44.942 49.582 54.866 60.880 67.709 75.427 84.094 93.751 104.406 116.034 128.565 141.886 155.832 170.191 184.703 199.070 212.963 226.037 237.944 248.347 256.940 263.464 267.718 269.570 268.968 265.937 260.585 253.087 243.683 232.662 220.347 207.077 193.194 179.025 164.872 151.000 137.631 124.940 113.054 102.055 91.981 82.838 74.598 67.214 60.622 54.749 49.518 44.852 40.677 36.928 33.545 30.476 27.679 25.118 22.765 20.596 18.594 16.745 15.038 13.463 12.014 10.684 9.466 8.357 7.349 6.438 5.617 4.881 4.225 3.642 3.126 2.673 2.276 1.930 1.629 1.370 1.147 0.957 0.795 0.657 0.541 0.444 0.362 0.295 0.239 0.193 0.155 0.124 
9.459 10.483 11.597 12.813 14.145 15.612 17.237 19.051 21.089 23.396 26.027 29.042 32.514 36.519 41.143 46.473 52.594 59.588 67.523 76.451 86.397 97.354 109.278 122.079 135.620 149.715 164.131 178.591 192.784 206.375 219.017 230.370 240.111 247.956 253.673 257.093 258.120 256.736 253.004 247.059 239.104 229.398 218.243 205.963 192.896 179.372 165.702 152.166 139.006 126.417 114.550 103.508 93.349 84.097 75.738 68.238 61.539 55.574 50.268 45.545 41.332 37.558 34.162 31.090 28.295 25.739 23.392 21.227 19.226 17.375 15.660 14.073 12.607 11.256 10.014 8.877 7.839 6.896 6.042 5.273 4.584 3.968 3.421 2.937 2.512 2.139 1.814 1.532 1.288 1.079 0.900 0.748 0.618 0.509 0.418 0.341 0.278 0.225 0.181 0.146 0.117 
6.188 6.935 7.768 8.699 9.747 10.934 12.288 13.844 15.644 17.737 20.184 23.051 26.413 30.354 34.959 40.316 46.510 53.617 61.697 70.792 80.914 92.040 104.105 117.002 130.572 144.610 158.868 173.055 186.854 199.926 211.932 222.542 231.456 238.414 243.215 245.724 245.882 243.705 239.288 232.794 224.448 214.523 203.326 191.181 178.417 165.348 152.265 139.424 127.041 115.286 104.282 94.109 84.808 76.382 68.807 62.036 56.010 50.657 45.902 41.671 37.894 34.507 31.452 28.679 26.149 23.827 21.686 19.705 17.869 16.164 14.582 13.114 11.756 10.502 9.348 8.290 7.323 6.444 5.648 4.931 4.287 3.712 3.201 2.749 2.352 2.003 1.699 1.435 1.207 1.011 0.844 0.701 0.580 0.478 0.392 0.320 0.260 0.211 0.170 0.137 0.109 
