ncols         101
nrows         101
xllcorner     0.000
yllcorner     0.000
cellsize      10.000
NODATA_value  -9999.0
7.926 9.138 10.492 11.997 13.660 15.487 17.482 19.646 21.979 24.478 27.137 29.946 32.895 35.966 39.141 42.399 45.714 49.059 52.405 55.720 58.972 62.129 65.156 68.023 70.700 73.159 75.374 77.324 78.993 80.367 81.439 82.206 82.669 82.835 82.716 82.328 81.689 80.823 79.754 78.509 77.116 75.603 73.998 72.329 70.619 68.894 67.173 65.475 63.815 62.208 60.661 59.184 57.781 56.455 55.208 54.041 52.951 51.939 51.002 50.138 49.347 48.627 47.976 47.395 46.883 46.439 46.061 45.747 45.492 45.292 45.136 45.014 44.911 44.810 44.691 44.534 44.314 44.010 43.600 43.064 42.388 41.561 40.575 39.433 38.140 36.707 35.153 33.497 31.764 29.981 28.173 26.366 24.584 22.848 21.174 19.577 18.067 16.649 15.326 14.099 12.966 
9.007 10.399 11.955 13.687 15.602 17.707 20.006 22.502 25.195 28.080 31.151 34.397 37.804 41.353 45.023 48.787 52.617 56.480 60.342 64.166 67.912 71.544 75.022 78.308 81.367 84.166 86.675 88.869 90.729 92.238 93.387 94.172 94.597 94.669 94.402 93.814 92.929 91.773 90.376 88.770 86.989 85.065 83.033 80.925 78.770 76.598 74.432 72.295 70.207 68.182 66.234 64.371 62.602 60.929 59.357 57.885 56.515 55.244 54.072 52.998 52.020 51.137 50.349 49.655 49.055 48.548 48.131 47.803 47.557 47.387 47.281 47.226 47.204 47.196 47.176 47.119 46.997 46.783 46.450 45.976 45.339 44.527 43.532 42.352 40.994 39.471 37.802 36.012 34.128 32.181 30.201 28.218 26.261 24.353 22.515 20.763 19.110 17.562 16.122 14.791 13.566 
10.110 11.686 13.451 15.415 17.589 19.980 22.594 25.433 28.497 31.781 35.279 38.977 42.859 46.904 51.087 55.378 59.744 64.147 68.547 72.902 77.166 81.296 85.247 88.974 92.436 95.595 98.417 100.873 102.938 104.594 105.832 106.646 107.040 107.022 106.609 105.823 104.689 103.240 101.510 99.536 97.358 95.014 92.543 89.983 87.368 84.733 82.105 79.511 76.974 74.512 72.140 69.870 67.710 65.668 63.746 61.947 60.271 58.720 57.292 55.986 54.803 53.742 52.802 51.984 51.288 50.711 50.253 49.910 49.676 49.541 49.494 49.518 49.591 49.689 49.784 49.845 49.838 49.731 49.492 49.092 48.507 47.720 46.720 45.505 44.082 42.464 40.674 38.739 36.691 34.566 32.398 30.222 28.072 25.975 23.957 22.035 20.224 18.532 16.964 15.519 14.194 
11.198 12.957 14.928 17.124 19.556 22.232 25.159 28.340 31.774 35.458 39.383 43.533 47.893 52.436 57.136 61.957 66.863 71.812 76.756 81.648 86.438 91.075 95.507 99.684 103.560 107.090 110.236 112.964 115.246 117.062 118.400 119.255 119.629 119.533 118.986 118.012 116.641 114.910 112.857 110.525 107.959 105.202 102.299 99.293 96.222 93.126 90.037 86.984 83.994 81.088 78.284 75.596 73.034 70.607 68.320 66.177 64.180 62.331 60.630 59.077 57.674 56.420 55.317 54.366 53.565 52.915 52.414 52.057 51.838 51.746 51.766 51.880 52.062 52.283 52.510 52.706 52.833 52.850 52.720 52.410 51.889 51.136 50.139 48.892 47.404 45.688 43.770 41.681 39.457 37.138 34.766 32.381 30.021 27.718 25.502 23.394 21.410 19.562 17.852 16.283 14.849 
12.230 14.164 16.332 18.749 21.427 24.376 27.603 31.113 34.904 38.973 43.309 47.897 52.717 57.743 62.943 68.280 73.711 79.190 84.665 90.083 95.388 100.522 105.428 110.051 114.337 118.237 121.708 124.712 127.218 129.203 130.653 131.562 131.933 131.779 131.119 129.981 128.399 126.412 124.065 121.404 118.479 115.339 112.032 108.607 105.106 101.572 98.042 94.548 91.120 87.781 84.552 81.449 78.485 75.671 73.014 70.519 68.191 66.032 64.047 62.235 60.601 59.145 57.870 56.777 55.867 55.140 54.595 54.227 54.028 53.986 54.084 54.299 54.604 54.964 55.341 55.691 55.969 56.128 56.126 55.920 55.476 54.769 53.781 52.508 50.955 49.139 47.087 44.835 42.423 39.898 37.306 34.695 32.107 29.581 27.150 24.840 22.669 20.650 18.788 17.083 15.532 
13.162 15.255 17.602 20.221 23.124 26.323 29.826 33.637 37.756 42.179 46.894 51.885 57.132 62.604 68.269 74.084 80.005 85.979 91.951 97.862 103.651 109.254 114.609 119.654 124.333 128.590 132.377 135.652 138.382 140.541 142.114 143.095 143.486 143.300 142.560 141.295 139.542 137.345 134.750 131.811 128.578 125.106 121.448 117.654 113.772 109.847 105.918 102.021 98.188 94.445 90.815 87.316 83.964 80.772 77.749 74.904 72.243 69.773 67.497 65.421 63.548 61.883 60.430 59.191 58.169 57.365 56.777 56.401 56.227 56.243 56.429 56.759 57.202 57.717 58.260 58.782 59.229 59.550 59.691 59.606 59.254 58.603 57.634 56.339 54.724 52.806 50.615 48.191 45.581 42.836 40.011 37.157 34.326 31.561 28.899 26.371 23.999 21.796 19.769 17.918 16.240 
13.953 16.181 18.683 21.475 24.572 27.987 31.727 35.799 40.202 44.932 49.977 55.321 60.940 66.803 72.875 79.112 85.464 91.877 98.290 104.640 110.861 116.885 122.645 128.075 133.112 137.698 141.780 145.314 148.262 150.599 152.305 153.375 153.813 153.631 152.853 151.510 149.643 147.298 144.524 141.376 137.911 134.183 130.248 126.161 121.970 117.722 113.459 109.218 105.034 100.933 96.942 93.082 89.369 85.820 82.448 79.263 76.277 73.497 70.931 68.589 66.476 64.600 62.966 61.580 60.445 59.564 58.936 58.556 58.414 58.497 58.781 59.239 59.832 60.518 61.245 61.956 62.592 63.091 63.393 63.444 63.197 62.615 61.674 60.363 58.688 56.668 54.335 51.734 48.916 45.941 42.869 39.759 36.669 33.649 30.742 27.982 25.394 22.995 20.792 18.786 16.973 
14.565 16.900 19.523 22.452 25.702 29.287 33.217 37.496 42.127 47.102 52.413 58.040 63.960 70.142 76.546 83.127 89.833 96.606 103.384 110.100 116.682 123.061 129.164 134.923 140.270 145.144 149.490 153.259 156.414 158.925 160.775 161.955 162.470 162.334 161.571 160.214 158.305 155.890 153.023 149.759 146.155 142.269 138.156 133.872 129.466 124.986 120.474 115.968 111.503 107.109 102.813 98.637 94.603 90.729 87.032 83.527 80.228 77.149 74.300 71.695 69.344 67.257 65.443 63.911 62.665 61.710 61.045 60.666 60.564 60.722 61.115 61.712 62.471 63.342 64.269 65.186 66.027 66.721 67.201 67.404 67.275 66.773 65.869 64.550 62.819 60.698 58.221 55.438 52.407 49.192 45.862 42.485 39.123 35.835 32.669 29.664 26.848 24.241 21.852 19.682 17.726 
14.970 17.377 20.082 23.103 26.459 30.161 34.222 38.646 43.435 48.583 54.081 59.910 66.046 72.455 79.099 85.931 92.896 99.936 106.986 113.975 120.831 127.481 133.851 139.868 145.463 150.573 155.141 159.116 162.459 165.140 167.141 168.453 169.081 169.040 168.353 167.056 165.189 162.800 159.942 156.670 153.042 149.114 144.941 140.576 136.068 131.464 126.805 122.128 117.469 112.858 108.323 103.891 99.584 95.425 91.435 87.635 84.043 80.678 77.557 74.697 72.112 69.819 67.829 66.153 64.799 63.774 63.078 62.707 62.651 62.892 63.405 64.152 65.088 66.158 67.299 68.437 69.498 70.403 71.075 71.444 71.448 71.038 70.181 68.860 67.079 64.860 62.240 59.273 56.023 52.563 48.967 45.312 41.669 38.102 34.666 31.405 28.351 25.527 22.944 20.601 18.495 
15.147 17.588 20.332 23.398 26.805 30.566 34.692 39.190 44.062 49.302 54.900 60.838 67.092 73.629 80.409 87.385 94.502 101.701 108.914 116.073 123.102 129.928 136.475 142.669 148.441 153.725 158.465 162.609 166.118 168.962 171.121 172.589 173.369 173.476 172.935 171.779 170.049 167.792 165.060 161.904 158.380 154.542 150.440 146.125 141.643 137.036 132.343 127.601 122.842 118.099 113.401 108.775 104.249 99.850 95.604 91.537 87.675 84.041 80.660 77.555 74.746 72.252 70.090 68.275 66.819 65.729 65.007 64.650 64.648 64.981 65.620 66.527 67.652 68.932 70.298 71.670 72.964 74.093 74.971 75.519 75.668 75.361 74.560 73.246 71.422 69.109 66.348 63.198 59.728 56.018 52.152 48.214 44.282 40.428 36.714 33.189 29.890 26.842 24.056 21.536 19.275 
15.089 17.523 20.261 23.323 26.725 30.482 34.606 39.104 43.978 49.222 54.828 60.778 67.048 73.605 80.411 87.418 94.572 101.814 109.078 116.293 123.387 130.285 136.912 143.195 149.065 154.457 159.315 163.588 167.238 170.234 172.560 174.207 175.180 175.494 175.172 174.247 172.758 170.748 168.265 165.358 162.076 158.468 154.578 150.452 146.128 141.645 137.038 132.340 127.581 122.793 118.007 113.253 108.563 103.969 99.503 95.199 91.089 87.206 83.579 80.239 77.213 74.526 72.199 70.252 68.698 67.548 66.806 66.469 66.527 66.958 67.732 68.806 70.127 71.626 73.227 74.842 76.380 77.743 78.837 79.575 79.878 79.684 78.950 77.652 75.792 73.391 70.495 67.164 63.476 59.517 55.380 51.156 46.932 42.788 38.792 34.998 31.449 28.172 25.180 22.477 20.057 
14.800 17.189 19.877 22.883 26.225 29.917 33.972 38.395 43.191 48.354 53.875 59.739 65.922 72.392 79.111 86.035 93.110 100.279 107.476 114.635 121.682 128.547 135.156 141.438 147.325 152.757 157.677 162.038 165.802 168.943 171.442 173.295 174.505 175.086 175.061 174.459 173.317 171.672 169.567 167.045 164.146 160.910 157.375 153.576 149.545 145.313 140.908 136.360 131.696 126.947 122.146 117.325 112.521 107.773 103.121 98.605 94.268 90.150 86.290 82.726 79.491 76.617 74.132 72.058 70.413 69.209 68.452 68.140 68.262 68.796 69.709 70.956 72.477 74.200 76.041 77.906 79.693 81.297 82.616 83.551 84.018 83.946 83.287 82.014 80.127 77.647 74.621 71.117 67.216 63.013 58.608 54.100 49.586 45.152 40.873 36.810 33.009 29.501 26.301 23.415 20.835 
14.297 16.604 19.200 22.104 25.333 28.903 32.824 37.104 41.745 46.745 52.095 57.780 63.777 70.057 76.585 83.316 90.201 97.184 104.204 111.195 118.091 124.821 131.316 137.510 143.338 148.743 153.672 158.082 161.938 165.216 167.900 169.985 171.476 172.386 172.736 172.550 171.860 170.699 169.099 167.094 164.714 161.989 158.945 155.606 151.993 148.129 144.034 139.732 135.248 130.611 125.856 121.019 116.143 111.274 106.461 101.754 97.205 92.864 88.780 84.999 81.562 78.508 75.870 73.674 71.942 70.689 69.921 69.638 69.828 70.468 71.523 72.943 74.666 76.614 78.697 80.812 82.851 84.700 86.246 87.384 88.021 88.078 87.503 86.264 84.358 81.808 78.664 74.996 70.892 66.453 61.788 57.003 52.204 47.485 42.928 38.598 34.548 30.811 27.405 24.336 21.596 
13.608 15.800 18.267 21.028 24.099 27.494 31.226 35.300 39.720 44.484 49.584 55.006 60.730 66.728 72.968 79.408 86.003 92.699 99.440 106.166 112.812 119.315 125.611 131.639 137.338 142.657 147.549 151.975 155.904 159.315 162.196 164.543 166.361 167.662 168.462 168.783 168.648 168.081 167.106 165.742 164.009 161.921 159.490 156.728 153.644 150.248 146.553 142.577 138.340 133.872 129.209 124.392 119.472 114.503 109.545 104.657 99.904 95.347 91.043 87.050 83.415 80.185 77.398 75.085 73.270 71.971 71.196 70.944 71.203 71.948 73.143 74.735 76.658 78.828 81.149 83.512 85.800 87.891 89.665 91.008 91.816 92.008 91.523 90.326 88.412 85.805 82.554 78.735 74.441 69.779 64.866 59.817 54.745 49.751 44.924 40.336 36.044 32.083 28.476 25.228 22.332 
12.767 14.818 17.127 19.710 22.585 25.764 29.258 33.075 37.218 41.685 46.470 51.560 56.937 62.577 68.448 74.515 80.734 87.058 93.435 99.811 106.127 112.326 118.350 124.145 129.659 134.844 139.662 144.078 148.068 151.615 154.709 157.349 159.539 161.290 162.614 163.525 164.040 164.170 163.926 163.314 162.337 160.994 159.280 157.191 154.723 151.873 148.645 145.050 141.106 136.842 132.296 127.518 122.565 117.503 112.402 107.335 102.377 97.602 93.080 88.874 85.043 81.639 78.706 76.278 74.384 73.042 72.261 72.040 72.366 73.214 74.545 76.303 78.418 80.801 83.352 85.954 88.484 90.812 92.809 94.353 95.334 95.663 95.273 94.127 92.215 89.562 86.220 82.266 77.798 72.932 67.789 62.493 57.163 51.909 46.827 41.994 37.470 33.296 29.496 26.076 23.031 
11.816 13.706 15.833 18.215 20.864 23.795 27.018 30.539 34.362 38.486 42.906 47.611 52.585 57.806 63.247 68.876 74.655 80.541 86.488 92.449 98.372 104.207 109.905 115.418 120.703 125.720 130.438 134.830 138.878 142.569 145.897 148.864 151.472 153.729 155.644 157.222 158.469 159.383 159.961 160.192 160.060 159.545 158.625 157.279 155.486 153.231 150.509 147.324 143.691 139.641 135.217 130.475 125.483 120.318 115.064 109.807 104.637 99.637 94.890 90.469 86.441 82.863 79.785 77.246 75.274 73.890 73.102 72.910 73.301 74.246 75.704 77.618 79.913 82.498 85.265 88.093 90.852 93.405 95.616 97.354 98.505 98.970 98.680 97.590 95.692 93.008 89.590 85.520 80.900 75.851 70.500 64.978 59.413 53.920 48.601 43.540 38.801 34.428 30.447 26.866 23.679 
10.796 12.513 14.446 16.608 19.015 21.677 24.605 27.805 31.280 35.031 39.054 43.338 47.872 52.635 57.605 62.753 68.047 73.450 78.923 84.425 89.914 95.346 100.682 105.882 110.912 115.743 120.350 124.715 128.826 132.677 136.265 139.593 142.663 145.480 148.044 150.354 152.402 154.171 155.641 156.781 157.556 157.926 157.848 157.282 156.192 154.551 152.343 149.566 146.235 142.384 138.061 133.332 128.277 122.986 117.556 112.091 106.690 101.454 96.472 91.831 87.603 83.852 80.630 77.980 75.932 74.506 73.711 73.545 73.993 75.026 76.601 78.657 81.117 83.885 86.849 89.885 92.855 95.617 98.027 99.949 101.261 101.861 101.670 100.644 98.770 96.069 92.595 88.430 83.682 78.475 72.943 67.224 61.450 55.743 50.212 44.946 40.011 35.457 31.311 27.583 24.266 
9.751 11.290 13.021 14.958 17.113 19.498 22.120 24.987 28.102 31.466 35.075 38.922 42.996 47.281 51.759 56.404 61.191 66.089 71.066 76.088 81.122 86.133 91.090 95.965 100.733 105.374 109.873 114.221 118.411 122.445 126.322 130.047 133.621 137.044 140.309 143.402 146.303 148.978 151.386 153.477 155.193 156.471 157.250 157.470 157.078 156.035 154.317 151.918 148.854 145.161 140.897 136.140 130.981 125.527 119.891 114.189 108.538 103.048 97.822 92.953 88.523 84.598 81.234 78.475 76.352 74.884 74.080 73.935 74.433 75.543 77.220 79.400 82.004 84.933 88.072 91.292 94.450 97.399 99.990 102.081 103.544 104.270 104.179 103.222 101.381 98.679 95.168 90.933 86.084 80.749 75.067 69.181 63.229 57.340 51.626 46.180 41.075 36.362 32.070 28.211 24.780 
8.717 10.079 11.610 13.323 15.229 17.337 19.655 22.190 24.945 27.922 31.117 34.527 38.141 41.947 45.931 50.072 54.351 58.742 63.221 67.763 72.342 76.933 81.517 86.073 90.588 95.052 99.460 103.810 108.104 112.349 116.548 120.706 124.822 128.890 132.894 136.809 140.596 144.205 147.573 150.627 153.287 155.468 157.086 158.063 158.331 157.840 156.559 154.480 151.620 148.024 143.759 138.916 133.603 127.940 122.059 116.090 110.165 104.405 98.925 93.825 89.190 85.093 81.591 78.726 76.531 75.021 74.205 74.075 74.613 75.787 77.548 79.832 82.556 85.621 88.907 92.282 95.600 98.711 101.459 103.700 105.299 106.144 106.150 105.263 103.467 100.778 97.251 92.972 88.052 82.621 76.824 70.806 64.712 58.674 52.810 47.216 41.969 37.122 32.708 28.738 25.209 
7.728 8.919 10.259 11.756 13.421 15.263 17.288 19.503 21.911 24.514 27.310 30.296 33.465 36.808 40.313 43.967 47.754 51.656 55.655 59.734 63.877 68.070 72.300 76.560 80.847 85.160 89.504 93.886 98.317 102.806 107.361 111.986 116.676 121.420 126.190 130.946 135.634 140.181 144.505 148.507 152.084 155.128 157.536 159.210 160.070 160.056 159.132 157.290 154.554 150.976 146.637 141.642 136.115 130.196 124.029 117.764 111.543 105.501 99.760 94.427 89.591 85.327 81.692 78.728 76.464 74.914 74.083 73.962 74.530 75.752 77.578 79.943 82.761 85.931 89.333 92.831 96.279 99.521 102.400 104.767 106.485 107.437 107.534 106.721 104.976 102.316 98.795 94.498 89.537 84.046 78.171 72.061 65.864 59.715 53.737 48.029 42.672 37.720 33.209 29.151 25.543 
6.807 7.840 9.001 10.297 11.737 13.330 15.081 16.997 19.080 21.332 23.754 26.343 29.095 32.003 35.061 38.258 41.584 45.029 48.581 52.232 55.974 59.802 63.715 67.715 71.810 76.009 80.327 84.779 89.382 94.151 99.095 104.216 109.507 114.945 120.492 126.093 131.673 137.141 142.389 147.295 151.733 155.573 158.691 160.975 162.333 162.696 162.029 160.326 157.618 153.970 149.476 144.259 138.460 132.235 125.748 119.161 112.629 106.298 100.296 94.736 89.708 85.288 81.530 78.476 76.149 74.562 73.716 73.598 74.184 75.439 77.309 79.728 82.611 85.854 89.338 92.925 96.467 99.807 102.788 105.256 107.072 108.116 108.297 107.556 105.870 103.254 99.760 95.473 90.504 84.989 79.075 72.913 66.654 60.436 54.384 48.600 43.166 38.141 33.560 29.438 25.773 
5.973 6.863 7.860 8.973 10.210 11.576 13.079 14.721 16.508 18.442 20.522 22.750 25.121 27.635 30.285 33.067 35.976 39.007 42.158 45.425 48.812 52.322 55.963 59.750 63.698 67.828 72.163 76.726 81.540 86.622 91.984 97.625 103.531 109.670 115.991 122.420 128.865 135.210 141.325 147.065 152.281 156.822 160.547 163.330 165.070 165.695 165.170 163.496 160.715 156.904 152.176 146.670 140.545 133.976 127.142 120.217 113.370 106.753 100.500 94.725 89.522 84.962 81.098 77.965 75.586 73.968 73.106 72.986 73.580 74.850 76.743 79.191 82.107 85.390 88.919 92.557 96.157 99.560 102.609 105.150 107.040 108.161 108.416 107.746 106.125 103.567 100.120 95.870 90.926 85.424 79.512 73.341 67.063 60.818 54.733 48.912 43.438 38.373 33.752 29.593 25.893 
5.236 5.998 6.852 7.803 8.859 10.025 11.306 12.707 14.231 15.881 17.659 19.566 21.601 23.764 26.054 28.470 31.012 33.682 36.482 39.420 42.505 45.749 49.173 52.797 56.649 60.758 65.156 69.871 74.932 80.359 86.162 92.337 98.861 105.693 112.765 119.987 127.245 134.402 141.304 147.785 153.672 158.798 163.005 166.159 168.152 168.912 168.408 166.651 163.696 159.636 154.601 148.748 142.257 135.317 128.121 120.858 113.703 106.816 100.332 94.368 89.013 84.337 80.388 77.196 74.777 73.135 72.259 72.133 72.724 73.994 75.888 78.337 81.256 84.543 88.080 91.732 95.351 98.781 101.864 104.447 106.388 107.565 107.885 107.282 105.731 103.242 99.863 95.675 90.790 85.338 79.467 73.330 67.076 60.849 54.772 48.955 43.479 38.408 33.778 29.609 25.898 
4.598 5.250 5.979 6.791 7.690 8.683 9.772 10.964 12.261 13.666 15.183 16.812 18.556 20.417 22.397 24.500 26.729 29.092 31.599 34.264 37.103 40.139 43.400 46.916 50.724 54.860 59.363 64.269 69.609 75.404 81.661 88.372 95.504 103.003 110.787 118.746 126.746 134.627 142.215 149.320 155.754 161.331 165.884 169.269 171.379 172.144 171.542 169.595 166.374 161.989 156.589 150.349 143.467 136.146 128.593 121.006 113.567 106.439 99.758 93.639 88.166 83.405 79.398 76.169 73.728 72.071 71.186 71.050 71.629 72.883 74.756 77.180 80.070 83.328 86.836 90.462 94.062 97.481 100.563 103.158 105.124 106.340 106.710 106.170 104.691 102.283 98.989 94.890 90.093 84.727 78.938 72.876 66.691 60.523 54.499 48.724 43.285 38.242 33.635 29.483 25.785 
4.058 4.617 5.241 5.934 6.701 7.547 8.475 9.489 10.594 11.793 13.088 14.484 15.983 17.590 19.311 21.152 23.123 25.235 27.505 29.953 32.604 35.487 38.640 42.100 45.911 50.119 54.767 59.896 65.537 71.713 78.426 85.660 93.374 101.498 109.935 118.556 127.206 135.705 143.858 151.457 158.297 164.181 168.934 172.409 174.501 175.147 174.335 172.104 168.539 163.772 157.967 151.321 144.043 136.352 128.466 120.589 112.906 105.580 98.748 92.518 86.970 82.163 78.130 74.890 72.446 70.788 69.898 69.751 70.311 71.534 73.365 75.738 78.571 81.765 85.208 88.771 92.313 95.684 98.732 101.308 103.272 104.506 104.913 104.430 103.025 100.706 97.515 93.528 88.848 83.603 77.933 71.987 65.912 59.846 53.915 48.223 42.856 37.876 33.323 29.215 25.555 
3.609 4.091 4.628 5.223 5.880 6.604 7.398 8.266 9.212 10.240 11.353 12.556 13.854 15.254 16.764 18.394 20.158 22.072 24.159 26.444 28.959 31.743 34.837 38.288 42.146 46.463 51.287 56.660 62.615 69.172 76.328 84.058 92.310 101.000 110.012 119.201 128.392 137.386 145.969 153.919 161.017 167.059 171.865 175.291 177.237 177.650 176.534 173.941 169.978 164.793 158.569 151.518 143.864 135.838 127.662 119.545 111.674 104.210 97.283 90.996 85.423 80.613 76.592 73.370 70.944 69.299 68.413 68.254 68.787 69.966 71.737 74.036 76.782 79.881 83.225 86.689 90.138 93.426 96.406 98.932 100.869 102.100 102.531 102.097 100.766 98.544 95.470 91.615 87.079 81.986 76.471 70.679 64.753 58.829 53.030 47.459 42.200 37.316 32.845 28.809 25.209 
3.241 3.661 4.127 4.642 5.210 5.836 6.521 7.271 8.088 8.977 9.943 10.992 12.129 13.364 14.707 16.172 17.776 19.540 21.492 23.663 26.091 28.820 31.899 35.381 39.321 43.775 48.794 54.422 60.690 67.614 75.184 83.366 92.095 101.272 110.767 120.414 130.021 139.374 148.242 156.392 163.598 169.649 174.369 177.617 179.303 179.389 177.892 174.886 170.492 164.879 158.247 150.819 142.833 134.525 126.123 117.835 109.847 102.313 95.359 89.077 83.533 78.767 74.797 71.626 69.242 67.625 66.749 66.580 67.080 68.203 69.898 72.100 74.734 77.709 80.922 84.255 87.576 90.748 93.629 96.077 97.963 99.171 99.611 99.218 97.961 95.841 92.894 89.190 84.822 79.908 74.580 68.977 63.236 57.491 51.860 46.444 41.327 36.569 32.210 28.271 24.753 
2.944 3.314 3.723 4.175 4.672 5.219 5.818 6.473 7.188 7.968 8.818 9.745 10.757 11.864 13.079 14.419 15.905 17.562 19.421 21.520 23.901 26.614 29.712 33.255 37.301 41.909 47.130 53.010 59.576 66.836 74.776 83.349 92.478 102.050 111.917 121.898 131.787 141.353 150.357 158.557 165.721 171.642 176.146 179.102 180.434 180.118 178.191 174.744 169.916 163.892 156.887 149.136 140.882 132.367 123.819 115.443 107.419 99.895 92.985 86.774 81.318 76.646 72.768 69.678 67.360 65.787 64.930 64.752 65.214 66.273 67.876 69.962 72.460 75.286 78.340 81.512 84.676 87.702 90.454 92.799 94.610 95.778 96.213 95.852 94.665 92.650 89.841 86.302 82.122 77.413 72.299 66.914 61.391 55.857 50.427 45.199 40.254 35.651 31.428 27.608 24.194 
2.706 3.036 3.401 3.803 4.245 4.730 5.261 5.842 6.478 7.173 7.934 8.768 9.684 10.695 11.815 13.065 14.467 16.052 17.853 19.913 22.279 25.004 28.148 31.771 35.936 40.702 46.121 52.235 59.068 66.621 74.870 83.759 93.196 103.054 113.171 123.354 133.381 143.014 152.004 160.106 167.089 172.751 176.927 179.499 180.405 179.640 177.259 173.370 168.131 161.740 154.422 146.421 137.984 129.353 120.752 112.381 104.411 96.980 90.191 84.120 78.809 74.279 70.533 67.556 65.326 63.812 62.981 62.796 63.218 64.202 65.700 67.655 69.999 72.653 75.524 78.508 81.490 84.344 86.943 89.160 90.876 91.985 92.402 92.066 90.945 89.037 86.373 83.010 79.034 74.549 69.673 64.533 59.255 53.961 48.760 43.747 39.000 34.576 30.513 26.833 23.539 
2.516 2.816 3.146 3.509 3.907 4.345 4.824 5.349 5.924 6.555 7.248 8.011 8.857 9.797 10.850 12.037 13.384 14.924 16.695 18.741 21.115 23.873 27.076 30.789 35.074 39.990 45.588 51.906 58.961 66.749 75.233 84.347 93.988 104.015 114.253 124.498 134.520 144.072 152.904 160.771 167.448 172.740 176.496 178.614 179.048 177.814 174.982 170.678 165.076 158.383 150.834 142.675 134.155 125.509 116.958 108.690 100.866 93.613 87.022 81.155 76.045 71.705 68.127 65.290 63.168 61.726 60.929 60.739 61.117 62.021 63.404 65.214 67.387 69.851 72.520 75.296 78.073 80.733 83.158 85.228 86.830 87.866 88.252 87.932 86.872 85.072 82.556 79.378 75.618 71.373 66.754 61.879 56.869 51.837 46.889 42.115 37.588 33.364 29.480 25.958 22.801 
2.364 2.640 2.943 3.276 3.642 4.043 4.482 4.965 5.494 6.076 6.719 7.432 8.226 9.117 10.123 11.269 12.582 14.098 15.858 17.909 20.305 23.106 26.374 30.174 34.568 39.615 45.361 51.839 59.061 67.011 75.646 84.886 94.617 104.688 114.915 125.083 134.958 144.290 152.831 160.340 166.602 171.436 174.704 176.323 176.267 174.567 171.313 166.646 160.750 153.841 146.158 137.946 129.450 120.900 112.502 104.437 96.851 89.857 83.535 77.934 73.077 68.966 65.588 62.916 60.919 59.560 58.803 58.609 58.941 59.759 61.020 62.674 64.665 66.925 69.376 71.928 74.483 76.933 79.166 81.072 82.547 83.495 83.840 83.527 82.525 80.829 78.463 75.476 71.940 67.945 63.596 59.002 54.277 49.526 44.849 40.332 36.043 32.037 28.348 24.998 21.991 
2.242 2.499 2.782 3.092 3.432 3.805 4.215 4.665 5.160 5.707 6.313 6.989 7.747 8.604 9.580 10.700 11.995 13.501 15.263 17.328 19.753 22.598 25.927 29.802 34.287 39.434 45.287 51.871 59.191 67.224 75.915 85.175 94.880 104.870 114.953 124.910 134.504 143.489 151.620 158.668 164.429 168.738 171.476 172.578 172.037 169.902 166.279 161.319 155.216 148.191 140.480 132.328 123.968 115.621 107.481 99.713 92.451 85.791 79.801 74.519 69.958 66.111 62.959 60.471 58.611 57.343 56.630 56.433 56.718 57.446 58.578 60.070 61.870 63.916 66.139 68.456 70.777 73.003 75.033 76.763 78.097 78.948 79.243 78.930 77.978 76.384 74.168 71.373 68.065 64.329 60.258 55.956 51.526 47.069 42.677 38.430 34.393 30.617 27.135 23.968 21.121 
2.141 2.384 2.651 2.943 3.264 3.616 4.003 4.429 4.899 5.420 6.000 6.649 7.383 8.217 9.174 10.279 11.566 13.071 14.840 16.924 19.377 22.260 25.637 29.568 34.113 39.322 45.231 51.860 59.205 67.234 75.883 85.055 94.617 104.403 114.216 123.837 133.031 141.557 149.180 155.684 160.882 164.626 166.816 167.407 166.411 163.892 159.969 154.803 148.593 141.558 133.932 125.951 117.837 109.797 102.010 94.626 87.762 81.502 75.898 70.979 66.747 63.190 60.282 57.990 56.277 55.105 54.437 54.238 54.473 55.109 56.110 57.435 59.039 60.866 62.854 64.929 67.009 69.004 70.822 72.369 73.554 74.299 74.536 74.216 73.311 71.814 69.744 67.140 64.062 60.585 56.797 52.791 48.665 44.509 40.410 36.441 32.665 29.127 25.861 22.885 20.205 
2.057 2.288 2.542 2.821 3.127 3.463 3.833 4.240 4.692 5.193 5.754 6.386 7.102 7.922 8.867 9.964 11.248 12.756 14.533 16.631 19.106 22.015 25.421 29.381 33.952 39.176 45.086 51.693 58.985 66.921 75.431 84.408 93.715 103.182 112.611 121.786 130.476 138.452 145.491 151.393 155.989 159.151 160.800 160.910 159.507 156.673 152.535 147.260 141.046 134.111 126.680 118.977 111.210 103.571 96.222 89.295 82.892 77.082 71.906 67.380 63.502 60.252 57.600 55.511 53.948 52.873 52.251 52.048 52.233 52.775 53.642 54.799 56.206 57.813 59.565 61.395 63.232 64.993 66.595 67.952 68.985 69.618 69.792 69.459 68.594 67.190 65.262 62.845 59.993 56.775 53.268 49.561 45.738 41.887 38.083 34.398 30.886 27.591 24.545 21.765 19.256 
1.983 2.206 2.450 2.718 3.012 3.335 3.692 4.086 4.523 5.011 5.558 6.176 6.881 7.690 8.627 9.720 11.002 12.512 14.295 16.401 18.885 21.803 25.213 29.172 33.728 38.919 44.771 51.287 58.448 66.205 74.481 83.164 92.114 101.159 110.105 118.740 126.845 134.201 140.603 145.869 149.849 152.438 153.574 153.249 151.506 148.437 144.175 138.890 132.778 126.048 118.914 111.586 104.257 97.098 90.255 83.843 77.947 72.624 67.903 63.792 60.280 57.344 54.951 53.067 51.653 50.673 50.094 49.885 50.018 50.466 51.201 52.191 53.402 54.791 56.309 57.897 59.491 61.019 62.405 63.574 64.451 64.970 65.076 64.726 63.896 62.579 60.787 58.552 55.920 52.955 49.726 46.312 42.791 39.241 35.733 32.329 29.081 26.031 23.206 20.622 18.287 
1.918 2.133 2.369 2.628 2.913 3.226 3.572 3.955 4.382 4.858 5.395 6.004 6.700 7.502 8.433 9.521 10.800 12.309 14.090 16.193 18.671 21.577 24.966 28.888 33.387 38.495 44.230 50.588 57.543 65.040 72.996 81.297 89.800 98.337 106.719 114.743 122.202 128.893 134.629 139.248 142.623 144.664 145.333 144.637 142.630 139.412 135.122 129.926 124.014 117.584 110.838 103.968 97.148 90.531 84.246 78.389 73.032 68.218 63.966 60.275 57.132 54.508 52.371 50.686 49.415 48.526 47.987 47.770 47.850 48.204 48.808 49.635 50.654 51.831 53.120 54.472 55.829 57.129 58.303 59.285 60.008 60.413 60.449 60.078 59.278 58.041 56.378 54.317 51.898 49.178 46.218 43.090 39.864 36.609 33.390 30.263 27.277 24.468 21.861 19.473 17.311 
1.858 2.067 2.296 2.547 2.824 3.130 3.467 3.842 4.259 4.727 5.256 5.856 6.545 7.340 8.265 9.347 10.620 12.121 13.891 15.979 18.434 21.306 24.644 28.495 32.895 37.872 43.434 49.572 56.253 63.417 70.979 78.822 86.806 94.767 102.524 109.887 116.663 122.668 127.733 131.717 134.514 136.054 136.316 135.320 133.131 129.854 125.626 120.610 114.986 108.940 102.656 96.308 90.051 84.021 78.325 73.047 68.242 63.943 60.159 56.886 54.103 51.782 49.891 48.394 47.258 46.452 45.947 45.718 45.745 46.007 46.483 47.151 47.987 48.958 50.027 51.152 52.281 53.360 54.330 55.130 55.703 55.995 55.961 55.568 54.793 53.630 52.089 50.191 47.975 45.489 42.788 39.935 36.992 34.023 31.084 28.227 25.494 22.920 20.527 18.331 16.337 
1.803 2.005 2.228 2.473 2.744 3.042 3.372 3.740 4.150 4.611 5.132 5.725 6.407 7.195 8.112 9.185 10.446 11.932 13.682 15.741 18.154 20.969 24.229 27.975 32.237 37.036 42.375 48.238 54.587 61.358 68.464 75.791 83.201 90.539 97.633 104.308 110.388 115.706 120.115 123.496 125.760 126.858 126.781 125.563 123.275 120.023 115.942 111.187 105.925 100.328 94.562 88.781 83.123 77.702 72.611 67.916 63.661 59.869 56.542 53.670 51.231 49.196 47.535 46.213 45.199 44.466 43.988 43.745 43.717 43.888 44.241 44.758 45.418 46.194 47.055 47.963 48.876 49.745 50.519 51.146 51.575 51.758 51.656 51.237 50.484 49.390 47.961 46.218 44.193 41.927 39.471 36.879 34.208 31.511 28.840 26.241 23.753 21.405 19.218 17.207 15.377 
1.750 1.947 2.165 2.404 2.669 2.961 3.285 3.646 4.050 4.504 5.018 5.605 6.278 7.058 7.965 9.025 10.270 11.732 13.451 15.466 17.821 20.557 23.713 27.323 31.413 35.995 41.068 46.610 52.579 58.911 65.517 72.286 79.088 85.775 92.190 98.171 103.561 108.213 112.001 114.824 116.613 117.335 116.995 115.632 113.324 110.174 106.313 101.885 97.043 91.943 86.731 81.543 76.497 71.691 67.201 63.079 59.358 56.051 53.158 50.664 48.545 46.775 45.322 44.157 43.251 42.580 42.122 41.860 41.777 41.860 42.096 42.469 42.963 43.556 44.221 44.926 45.636 46.308 46.899 47.362 47.654 47.734 47.566 47.123 46.388 45.355 44.030 42.430 40.583 38.525 36.299 33.953 31.536 29.096 26.679 24.325 22.069 19.936 17.946 16.112 14.439 
1.699 1.892 2.104 2.339 2.598 2.885 3.203 3.558 3.956 4.404 4.911 5.491 6.156 6.925 7.819 8.863 10.084 11.516 13.193 15.153 17.432 20.070 23.099 26.548 30.435 34.769 39.542 44.729 50.285 56.144 62.222 68.411 74.588 80.617 86.356 91.658 96.385 100.409 103.624 105.948 107.328 107.745 107.214 105.782 103.525 100.545 96.963 92.911 88.529 83.953 79.313 74.724 70.288 66.085 62.175 58.601 55.385 52.534 50.043 47.895 46.068 44.534 43.267 42.239 41.425 40.805 40.358 40.072 39.933 39.931 40.055 40.294 40.633 41.055 41.539 42.056 42.578 43.067 43.487 43.799 43.964 43.946 43.716 43.248 42.529 41.553 40.323 38.855 37.172 35.306 33.293 31.176 28.996 26.797 24.618 22.494 20.455 18.525 16.721 15.055 13.530 
1.650 1.838 2.047 2.276 2.531 2.812 3.126 3.475 3.867 4.309 4.810 5.381 6.037 6.794 7.673 8.695 9.889 11.283 12.909 14.801 16.993 19.516 22.399 25.665 29.328 33.390 37.840 42.648 47.770 53.141 58.678 64.281 69.837 75.221 80.304 84.959 89.065 92.512 95.213 97.103 98.144 98.328 97.678 96.243 94.099 91.342 88.082 84.441 80.540 76.498 72.429 68.429 64.582 60.954 57.593 54.530 51.781 49.347 47.219 45.382 43.813 42.487 41.380 40.467 39.729 39.145 38.702 38.388 38.193 38.109 38.128 38.241 38.437 38.702 39.018 39.363 39.711 40.034 40.298 40.470 40.518 40.411 40.122 39.632 38.926 38.000 36.857 35.510 33.977 32.287 30.471 28.565 26.605 24.628 22.669 20.759 18.922 17.181 15.551 14.041 12.656 
1.603 1.788 1.991 2.217 2.467 2.744 3.053 3.397 3.784 4.220 4.713 5.276 5.922 6.665 7.525 8.524 9.685 11.035 12.603 14.418 16.511 18.907 21.631 24.701 28.124 31.900 36.012 40.432 45.113 49.992 54.992 60.021 64.974 69.740 74.206 78.259 81.796 84.728 86.981 88.505 89.277 89.297 88.591 87.212 85.230 82.736 79.827 76.612 73.197 69.684 66.168 62.730 59.439 56.348 53.492 50.896 48.568 46.506 44.701 43.135 41.788 40.639 39.665 38.847 38.165 37.607 37.159 36.813 36.561 36.398 36.317 36.313 36.378 36.499 36.663 36.851 37.043 37.213 37.336 37.381 37.323 37.135 36.794 36.282 35.588 34.708 33.644 32.405 31.010 29.480 27.843 26.129 24.371 22.598 20.841 19.127 17.477 15.911 14.441 13.077 11.822 
1.558 1.739 1.939 2.161 2.407 2.680 2.984 3.324 3.705 4.135 4.622 5.176 5.810 6.538 7.379 8.350 9.475 10.776 12.281 14.013 15.999 18.261 20.818 23.682 26.859 30.343 34.115 38.147 42.392 46.791 51.272 55.751 60.134 64.324 68.220 71.728 74.760 77.241 79.114 80.343 80.912 80.830 80.125 78.848 77.066 74.859 72.315 69.528 66.588 63.582 60.589 57.676 54.897 52.294 49.894 47.714 45.757 44.020 42.492 41.157 39.997 38.993 38.126 37.379 36.739 36.192 35.731 35.349 35.039 34.800 34.627 34.515 34.458 34.449 34.475 34.522 34.573 34.607 34.602 34.535 34.381 34.120 33.732 33.201 32.518 31.679 30.685 29.545 28.273 26.889 25.414 23.875 22.298 20.711 19.138 17.603 16.124 14.718 13.396 12.165 11.030 
1.516 1.694 1.890 2.108 2.350 2.620 2.920 3.255 3.632 4.056 4.536 5.081 5.703 6.416 7.235 8.178 9.264 10.515 11.952 13.598 15.474 17.597 19.984 22.642 25.572 28.767 32.206 35.861 39.686 43.628 47.619 51.585 55.443 59.107 62.492 65.516 68.108 70.208 71.770 72.769 73.197 73.067 72.408 71.269 69.711 67.803 65.624 63.252 60.765 58.234 55.724 53.289 50.971 48.802 46.804 44.985 43.348 41.887 40.591 39.447 38.438 37.548 36.762 36.066 35.450 34.904 34.421 33.998 33.631 33.318 33.057 32.845 32.678 32.551 32.453 32.374 32.299 32.212 32.094 31.926 31.688 31.362 30.932 30.385 29.712 28.910 27.980 26.928 25.767 24.512 23.183 21.801 20.389 18.969 17.562 16.189 14.865 13.604 12.416 11.307 10.282 
1.477 1.651 1.845 2.060 2.299 2.565 2.861 3.193 3.565 3.984 4.457 4.994 5.604 6.301 7.098 8.011 9.058 10.257 11.626 13.185 14.950 16.937 19.156 21.611 24.302 27.219 30.340 33.637 37.069 40.585 44.126 47.624 51.008 54.204 57.140 59.747 61.967 63.753 65.069 65.899 66.240 66.107 65.530 64.554 63.231 61.623 59.797 57.818 55.751 53.654 51.579 49.569 47.657 45.867 44.213 42.701 41.332 40.099 38.992 37.999 37.107 36.302 35.572 34.908 34.300 33.742 33.230 32.762 32.336 31.951 31.608 31.303 31.036 30.802 30.593 30.401 30.214 30.020 29.803 29.546 29.235 28.852 28.386 27.825 27.162 26.393 25.519 24.547 23.485 22.346 21.147 19.905 18.640 17.369 16.112 14.883 13.699 12.569 11.502 10.504 9.578 
1.441 1.613 1.804 2.016 2.252 2.516 2.809 3.138 3.506 3.920 4.387 4.915 5.515 6.196 6.972 7.856 8.864 10.011 11.314 12.788 14.446 16.301 18.358 20.621 23.086 25.741 28.567 31.534 34.605 37.735 40.870 43.953 46.920 49.709 52.260 54.517 56.431 57.966 59.096 59.810 60.110 60.011 59.542 58.741 57.656 56.339 54.845 53.228 51.542 49.833 48.142 46.502 44.939 43.470 42.105 40.847 39.696 38.645 37.685 36.806 35.999 35.251 34.555 33.903 33.288 32.708 32.159 31.641 31.155 30.700 30.278 29.888 29.529 29.197 28.889 28.597 28.312 28.023 27.719 27.385 27.009 26.579 26.082 25.509 24.855 24.116 23.294 22.391 21.417 20.381 19.297 18.180 17.044 15.907 14.782 13.684 12.623 11.611 10.653 9.755 8.919 
1.410 1.580 1.768 1.979 2.213 2.474 2.765 3.091 3.456 3.867 4.328 4.849 5.438 6.104 6.860 7.717 8.688 9.787 11.027 12.420 13.978 15.708 17.615 19.700 21.957 24.373 26.929 29.599 32.348 35.136 37.916 40.637 43.246 45.691 47.921 49.891 51.562 52.905 53.903 54.547 54.843 54.805 54.459 53.840 52.986 51.942 50.753 49.463 48.114 46.744 45.383 44.059 42.789 41.585 40.456 39.402 38.422 37.510 36.659 35.861 35.108 34.392 33.708 33.050 32.415 31.802 31.209 30.637 30.089 29.565 29.067 28.596 28.151 27.732 27.335 26.953 26.581 26.210 25.830 25.430 24.999 24.526 24.003 23.422 22.777 22.065 21.288 20.448 19.551 18.606 17.624 16.616 15.596 14.576 13.569 12.585 11.635 10.727 9.867 9.058 8.303 
1.384 1.552 1.740 1.948 2.181 2.440 2.730 3.054 3.417 3.825 4.282 4.796 5.376 6.030 6.768 7.600 8.537 9.592 10.774 12.093 13.559 15.176 16.947 18.872 20.942 23.145 25.464 27.873 30.341 32.834 35.309 37.724 40.034 42.195 44.165 45.908 47.393 48.597 49.508 50.121 50.441 50.484 50.270 49.830 49.195 48.402 47.486 46.484 45.428 44.348 43.267 42.204 41.173 40.184 39.241 38.344 37.492 36.680 35.902 35.154 34.429 33.722 33.030 32.350 31.682 31.024 30.379 29.749 29.136 28.543 27.971 27.423 26.900 26.400 25.922 25.461 25.013 24.569 24.123 23.665 23.187 22.679 22.134 21.546 20.910 20.224 19.486 18.701 17.873 17.008 16.115 15.203 14.284 13.368 12.464 11.582 10.730 9.914 9.140 8.411 7.728 
1.366 1.532 1.719 1.926 2.158 2.417 2.706 3.030 3.391 3.797 4.251 4.761 5.334 5.977 6.699 7.510 8.418 9.433 10.564 11.818 13.202 14.720 16.372 18.156 20.063 22.083 24.197 26.383 28.614 30.858 33.080 35.244 37.311 39.245 41.013 42.583 43.932 45.043 45.906 46.518 46.885 47.020 46.941 46.671 46.238 45.670 44.996 44.243 43.436 42.598 41.747 40.897 40.057 39.235 38.433 37.651 36.888 36.141 35.405 34.678 33.956 33.237 32.519 31.802 31.087 30.376 29.672 28.978 28.297 27.633 26.989 26.368 25.770 25.195 24.643 24.111 23.594 23.087 22.583 22.076 21.557 21.020 20.458 19.865 19.238 18.573 17.872 17.135 16.367 15.572 14.757 13.930 13.100 12.274 11.461 10.668 9.902 9.168 8.470 7.811 7.193 
1.355 1.522 1.707 1.915 2.147 2.406 2.695 3.019 3.381 3.786 4.239 4.746 5.313 5.949 6.659 7.452 8.335 9.318 10.405 11.604 12.919 14.353 15.903 17.568 19.339 21.204 23.147 25.149 27.184 29.226 31.245 33.208 35.086 36.846 38.461 39.908 41.166 42.222 43.068 43.703 44.132 44.366 44.419 44.310 44.059 43.690 43.224 42.683 42.084 41.445 40.780 40.097 39.404 38.707 38.006 37.302 36.593 35.879 35.158 34.427 33.686 32.935 32.174 31.406 30.633 29.859 29.087 28.323 27.571 26.835 26.118 25.424 24.755 24.110 23.491 22.893 22.315 21.752 21.198 20.647 20.094 19.532 18.956 18.360 17.741 17.097 16.427 15.733 15.017 14.284 13.537 12.784 12.031 11.284 10.550 9.835 9.145 8.483 7.853 7.256 6.696 
1.355 1.522 1.708 1.916 2.149 2.409 2.700 3.025 3.388 3.794 4.247 4.754 5.319 5.949 6.651 7.431 8.296 9.252 10.305 11.460 12.719 14.083 15.551 17.119 18.778 20.519 22.325 24.179 26.060 27.944 29.805 31.616 33.351 34.984 36.494 37.858 39.063 40.096 40.951 41.628 42.130 42.465 42.644 42.682 42.595 42.399 42.111 41.746 41.318 40.840 40.319 39.765 39.181 38.571 37.936 37.277 36.594 35.886 35.153 34.396 33.616 32.815 31.996 31.162 30.319 29.472 28.625 27.785 26.957 26.145 25.355 24.589 23.850 23.139 22.455 21.798 21.164 20.551 19.953 19.365 18.782 18.199 17.611 17.013 16.402 15.777 15.136 14.479 13.809 13.129 12.442 11.753 11.067 10.389 9.724 9.078 8.453 7.854 7.283 6.743 6.233 
1.369 1.536 1.723 1.933 2.167 2.430 2.723 3.050 3.416 3.825 4.281 4.788 5.354 5.982 6.680 7.452 8.304 9.242 10.269 11.390 12.606 13.917 15.322 16.814 18.388 20.032 21.733 23.476 25.240 27.006 28.751 30.452 32.088 33.637 35.079 36.398 37.581 38.617 39.502 40.234 40.815 41.251 41.550 41.722 41.779 41.733 41.595 41.377 41.087 40.735 40.326 39.865 39.357 38.803 38.204 37.562 36.877 36.150 35.384 34.581 33.743 32.876 31.983 31.071 30.147 29.216 28.286 27.363 26.454 25.564 24.697 23.859 23.051 22.275 21.530 20.817 20.132 19.473 18.835 18.214 17.605 17.004 16.406 15.808 15.205 14.596 13.980 13.357 12.727 12.093 11.458 10.824 10.197 9.579 8.975 8.388 7.821 7.277 6.759 6.267 5.802 
1.398 1.567 1.756 1.968 2.206 2.471 2.768 3.100 3.470 3.883 4.342 4.854 5.422 6.052 6.749 7.518 8.364 9.291 10.302 11.400 12.586 13.860 15.219 16.657 18.169 19.744 21.370 23.032 24.715 26.399 28.066 29.696 31.271 32.770 34.179 35.483 36.670 37.731 38.661 39.459 40.124 40.659 41.071 41.365 41.550 41.632 41.621 41.523 41.343 41.089 40.762 40.367 39.906 39.381 38.793 38.143 37.434 36.668 35.848 34.979 34.067 33.117 32.137 31.133 30.115 29.091 28.069 27.056 26.060 25.087 24.142 23.229 22.352 21.512 20.708 19.941 19.208 18.506 17.832 17.182 16.550 15.934 15.328 14.729 14.133 13.539 12.945 12.351 11.757 11.163 10.573 9.988 9.411 8.845 8.294 7.758 7.242 6.747 6.275 5.826 5.401 
1.448 1.619 1.812 2.027 2.268 2.538 2.840 3.176 3.552 3.971 4.437 4.955 5.529 6.164 6.865 7.636 8.481 9.404 10.407 11.493 12.662 13.913 15.243 16.647 18.119 19.649 21.227 22.839 24.470 26.105 27.727 29.319 30.864 32.346 33.750 35.063 36.276 37.380 38.369 39.239 39.991 40.625 41.143 41.549 41.847 42.042 42.137 42.138 42.046 41.866 41.598 41.246 40.809 40.290 39.690 39.011 38.257 37.432 36.541 35.589 34.586 33.538 32.455 31.348 30.225 29.097 27.973 26.863 25.773 24.712 23.685 22.696 21.748 20.843 19.982 19.162 18.383 17.642 16.934 16.256 15.605 14.974 14.361 13.762 13.173 12.592 12.018 11.449 10.885 10.327 9.776 9.233 8.700 8.180 7.674 7.184 6.712 6.259 5.827 5.417 5.028 
1.522 1.697 1.894 2.114 2.360 2.635 2.943 3.287 3.670 4.096 4.571 5.097 5.679 6.323 7.031 7.808 8.658 9.584 10.588 11.672 12.835 14.077 15.394 16.781 18.233 19.740 21.294 22.881 24.488 26.102 27.708 29.289 30.832 32.322 33.745 35.090 36.347 37.507 38.565 39.516 40.358 41.088 41.708 42.218 42.619 42.913 43.100 43.183 43.162 43.037 42.810 42.480 42.048 41.516 40.886 40.160 39.343 38.440 37.460 36.409 35.298 34.138 32.939 31.714 30.474 29.232 27.997 26.781 25.592 24.437 23.323 22.255 21.235 20.265 19.345 18.474 17.650 16.870 16.130 15.427 14.756 14.113 13.493 12.894 12.311 11.742 11.184 10.638 10.101 9.574 9.056 8.550 8.056 7.575 7.108 6.658 6.225 5.810 5.413 5.037 4.679 
1.627 1.808 2.009 2.235 2.487 2.770 3.085 3.436 3.828 4.264 4.748 5.285 5.879 6.533 7.252 8.041 8.901 9.836 10.849 11.939 13.107 14.351 15.668 17.055 18.504 20.008 21.558 23.142 24.749 26.366 27.979 29.574 31.138 32.657 34.120 35.514 36.830 38.060 39.197 40.235 41.169 41.997 42.716 43.325 43.822 44.205 44.474 44.627 44.663 44.580 44.378 44.055 43.612 43.051 42.373 41.582 40.685 39.689 38.603 37.436 36.203 34.914 33.585 32.230 30.861 29.493 28.138 26.808 25.512 24.258 23.053 21.901 20.806 19.769 18.790 17.868 17.000 16.182 15.412 14.684 13.995 13.339 12.714 12.113 11.535 10.976 10.434 9.907 9.393 8.893 8.405 7.931 7.470 7.023 6.592 6.176 5.777 5.394 5.030 4.683 4.354 
1.770 1.957 2.165 2.398 2.658 2.948 3.272 3.633 4.035 4.482 4.978 5.527 6.134 6.802 7.536 8.339 9.214 10.164 11.191 12.296 13.477 14.734 16.065 17.464 18.925 20.442 22.006 23.606 25.232 26.872 28.513 30.142 31.746 33.313 34.832 36.291 37.680 38.991 40.215 41.346 42.378 43.306 44.125 44.830 45.419 45.887 46.231 46.446 46.529 46.477 46.288 45.960 45.493 44.887 44.146 43.276 42.283 41.176 39.967 38.669 37.296 35.865 34.391 32.891 31.382 29.877 28.392 26.939 25.528 24.169 22.868 21.630 20.458 19.352 18.313 17.339 16.426 15.571 14.771 14.019 13.312 12.644 12.012 11.410 10.836 10.286 9.756 9.246 8.753 8.276 7.814 7.367 6.936 6.519 6.118 5.733 5.363 5.010 4.674 4.354 4.050 
1.960 2.154 2.371 2.612 2.880 3.180 3.514 3.885 4.299 4.758 5.267 5.831 6.452 7.137 7.888 8.709 9.603 10.573 11.620 12.745 13.947 15.227 16.580 18.002 19.488 21.032 22.624 24.256 25.917 27.597 29.282 30.961 32.623 34.254 35.844 37.381 38.856 40.258 41.579 42.811 43.946 44.978 45.899 46.703 47.384 47.934 48.349 48.621 48.745 48.717 48.532 48.187 47.683 47.020 46.202 45.236 44.130 42.897 41.548 40.102 38.574 36.985 35.351 33.694 32.031 30.378 28.753 27.169 25.637 24.167 22.765 21.437 20.184 19.008 17.907 16.880 15.923 15.031 14.200 13.424 12.699 12.019 11.380 10.777 10.205 9.662 9.143 8.647 8.172 7.715 7.276 6.854 6.447 6.057 5.683 5.325 4.982 4.654 4.343 4.047 3.766 
2.206 2.410 2.636 2.887 3.165 3.476 3.820 4.204 4.630 5.103 5.626 6.205 6.844 7.546 8.317 9.158 10.074 11.067 12.138 13.289 14.519 15.827 17.210 18.665 20.186 21.767 23.400 25.077 26.786 28.519 30.263 32.007 33.739 35.448 37.122 38.750 40.321 41.826 43.253 44.595 45.842 46.984 48.013 48.919 49.694 50.329 50.814 51.141 51.303 51.292 51.102 50.732 50.179 49.446 48.537 47.459 46.224 44.847 43.342 41.730 40.031 38.267 36.459 34.630 32.801 30.990 29.216 27.492 25.832 24.245 22.738 21.315 19.980 18.731 17.568 16.486 15.484 14.554 13.692 12.892 12.149 11.457 10.810 10.204 9.634 9.096 8.587 8.104 7.643 7.204 6.785 6.384 6.000 5.633 5.282 4.948 4.628 4.324 4.035 3.760 3.500 
2.519 2.735 2.972 3.234 3.525 3.847 4.204 4.601 5.041 5.528 6.067 6.662 7.319 8.040 8.831 9.695 10.634 11.653 12.751 13.932 15.194 16.536 17.956 19.450 21.014 22.641 24.323 26.054 27.823 29.620 31.434 33.254 35.069 36.868 38.638 40.369 42.049 43.667 45.212 46.674 48.042 49.303 50.447 51.463 52.337 53.059 53.617 53.999 54.195 54.196 53.996 53.590 52.978 52.161 51.145 49.939 48.558 47.018 45.340 43.544 41.657 39.702 37.705 35.692 33.684 31.704 29.771 27.900 26.105 24.396 22.780 21.260 19.839 18.516 17.288 16.152 15.103 14.135 13.242 12.418 11.657 10.951 10.296 9.687 9.117 8.583 8.082 7.609 7.161 6.738 6.335 5.953 5.589 5.243 4.913 4.599 4.301 4.017 3.748 3.493 3.251 
2.915 3.144 3.394 3.670 3.973 4.309 4.680 5.090 5.544 6.046 6.601 7.214 7.889 8.630 9.442 10.328 11.293 12.338 13.466 14.678 15.975 17.354 18.815 20.353 21.965 23.644 25.384 27.176 29.013 30.883 32.777 34.684 36.593 38.493 40.371 42.216 44.017 45.761 47.436 49.030 50.530 51.922 53.191 54.324 55.306 56.120 56.753 57.190 57.419 57.428 57.210 56.759 56.074 55.159 54.019 52.669 51.123 49.403 47.531 45.534 43.441 41.279 39.078 36.866 34.669 32.510 30.409 28.385 26.449 24.613 22.884 21.264 19.755 18.356 17.063 15.872 14.776 13.770 12.845 11.996 11.216 10.496 9.833 9.218 8.648 8.117 7.621 7.157 6.721 6.311 5.923 5.557 5.211 4.882 4.571 4.276 3.997 3.731 3.480 3.243 3.018 
3.409 3.652 3.918 4.208 4.526 4.876 5.262 5.686 6.155 6.673 7.244 7.874 8.567 9.327 10.160 11.070 12.059 13.132 14.290 15.534 16.867 18.285 19.789 21.374 23.037 24.773 26.575 28.435 30.345 32.296 34.279 36.282 38.294 40.305 42.303 44.275 46.210 48.093 49.912 51.652 53.297 54.832 56.239 57.500 58.596 59.509 60.221 60.715 60.974 60.986 60.741 60.233 59.462 58.432 57.153 55.638 53.908 51.987 49.902 47.685 45.368 42.983 40.564 38.141 35.743 33.395 31.120 28.935 26.854 24.888 23.043 21.321 19.723 18.247 16.888 15.640 14.498 13.452 12.496 11.622 10.821 10.088 9.414 8.794 8.222 7.693 7.202 6.745 6.318 5.919 5.545 5.193 4.862 4.550 4.255 3.977 3.714 3.465 3.231 3.009 2.800 
4.018 4.280 4.562 4.869 5.203 5.568 5.969 6.408 6.893 7.425 8.012 8.658 9.368 10.147 11.000 11.931 12.945 14.043 15.230 16.507 17.874 19.332 20.879 22.513 24.229 26.024 27.890 29.822 31.812 33.850 35.928 38.035 40.161 42.295 44.424 46.536 48.618 50.656 52.633 54.534 56.340 58.032 59.589 60.989 62.209 63.228 64.022 64.572 64.858 64.866 64.584 64.007 63.134 61.972 60.532 58.832 56.896 54.754 52.436 49.980 47.421 44.798 42.146 39.501 36.892 34.347 31.891 29.540 27.311 25.211 23.248 21.423 19.736 18.182 16.757 15.453 14.263 13.178 12.190 11.290 10.469 9.721 9.037 8.410 7.836 7.307 6.819 6.368 5.949 5.560 5.197 4.857 4.540 4.242 3.962 3.699 3.451 3.218 2.998 2.790 2.595 
4.767 5.048 5.349 5.673 6.024 6.405 6.821 7.276 7.774 8.322 8.923 9.584 10.310 11.105 11.976 12.927 13.961 15.084 16.297 17.604 19.005 20.500 22.090 23.771 25.540 27.395 29.328 31.335 33.408 35.539 37.718 39.938 42.187 44.454 46.727 48.993 51.238 53.445 55.598 57.676 59.659 61.523 63.244 64.795 66.148 67.278 68.157 68.762 69.070 69.064 68.734 68.071 67.079 65.763 64.141 62.234 60.070 57.683 55.112 52.397 49.580 46.703 43.806 40.927 38.099 35.351 32.708 30.189 27.808 25.574 23.492 21.564 19.786 18.155 16.664 15.304 14.067 12.943 11.922 10.996 10.156 9.392 8.696 8.063 7.484 6.955 6.469 6.022 5.610 5.229 4.876 4.548 4.242 3.957 3.690 3.441 3.207 2.987 2.780 2.586 2.404 
5.681 5.982 6.303 6.646 7.014 7.412 7.843 8.312 8.824 9.384 9.998 10.671 11.410 12.219 13.104 14.070 15.123 16.266 17.502 18.835 20.266 21.796 23.425 25.151 26.973 28.887 30.888 32.971 35.130 37.358 39.646 41.986 44.367 46.780 49.210 51.645 54.069 56.463 58.809 61.082 63.259 65.312 67.210 68.923 70.418 71.663 72.627 73.283 73.605 73.575 73.179 72.413 71.279 69.788 67.959 65.820 63.404 60.751 57.906 54.913 51.821 48.676 45.522 42.400 39.345 36.389 33.557 30.867 28.333 25.965 23.765 21.734 19.868 18.160 16.604 15.189 13.905 12.742 11.690 10.738 9.876 9.097 8.390 7.748 7.165 6.634 6.150 5.706 5.299 4.926 4.581 4.262 3.967 3.693 3.439 3.201 2.979 2.772 2.578 2.396 2.225 
6.794 7.117 7.458 7.819 8.204 8.617 9.061 9.542 10.065 10.636 11.259 11.941 12.688 13.507 14.402 15.379 16.444 17.602 18.856 20.210 21.666 23.226 24.891 26.659 28.530 30.502 32.570 34.730 36.978 39.307 41.710 44.179 46.704 49.274 51.876 54.496 57.116 59.717 62.274 64.761 67.149 69.406 71.495 73.379 75.022 76.384 77.432 78.132 78.456 78.386 77.906 77.014 75.714 74.021 71.960 69.564 66.871 63.929 60.788 57.500 54.117 50.692 47.271 43.899 40.613 37.445 34.422 31.561 28.876 26.375 24.058 21.926 19.973 18.191 16.571 15.102 13.773 12.572 11.488 10.510 9.628 8.832 8.114 7.464 6.876 6.342 5.858 5.416 5.014 4.646 4.309 3.999 3.713 3.449 3.205 2.978 2.768 2.572 2.389 2.218 2.058 
8.150 8.494 8.854 9.231 9.631 10.056 10.511 11.000 11.530 12.106 12.734 13.420 14.170 14.991 15.890 16.872 17.943 19.108 20.373 21.741 23.216 24.800 26.494 28.300 30.216 32.243 34.377 36.615 38.955 41.390 43.914 46.521 49.200 51.942 54.732 57.554 60.389 63.215 66.003 68.723 71.339 73.814 76.106 78.171 79.964 81.443 82.567 83.300 83.612 83.481 82.895 81.851 80.358 78.435 76.114 73.432 70.438 67.184 63.727 60.126 56.440 52.723 49.028 45.400 41.881 38.501 35.287 32.258 29.424 26.792 24.363 22.133 20.095 18.241 16.560 15.039 13.665 12.428 11.313 10.310 9.408 8.596 7.865 7.206 6.612 6.076 5.591 5.151 4.752 4.389 4.058 3.755 3.478 3.223 2.988 2.772 2.571 2.386 2.213 2.052 1.902 
9.809 10.170 10.544 10.934 11.343 11.775 12.235 12.727 13.258 13.832 14.457 15.138 15.884 16.699 17.593 18.570 19.638 20.802 22.069 23.442 24.927 26.527 28.244 30.081 32.038 34.116 36.314 38.631 41.064 43.609 46.263 49.017 51.864 54.791 57.786 60.829 63.899 66.970 70.009 72.979 75.841 78.548 81.051 83.301 85.245 86.836 88.026 88.777 89.056 88.840 88.119 86.894 85.177 82.995 80.383 77.389 74.067 70.478 66.687 62.759 58.756 54.740 50.766 46.881 43.128 39.538 36.137 32.942 29.964 27.206 24.668 22.345 20.227 18.305 16.565 14.994 13.579 12.305 11.161 10.134 9.212 8.384 7.640 6.973 6.373 5.833 5.347 4.908 4.511 4.152 3.827 3.531 3.261 3.014 2.788 2.580 2.389 2.212 2.049 1.898 1.757 
11.849 12.220 12.602 12.996 13.406 13.836 14.291 14.776 15.297 15.859 16.470 17.136 17.865 18.664 19.540 20.501 21.554 22.705 23.962 25.330 26.815 28.420 30.152 32.012 34.003 36.129 38.388 40.783 43.313 45.974 48.765 51.678 54.705 57.835 61.052 64.336 67.661 70.996 74.305 77.544 80.665 83.614 86.336 88.771 90.862 92.554 93.795 94.542 94.763 94.434 93.547 92.107 90.133 87.658 84.725 81.390 77.716 73.773 69.630 65.361 61.034 56.714 52.459 48.317 44.333 40.537 36.954 33.600 30.484 27.607 24.966 22.555 20.362 18.375 16.580 14.963 13.508 12.201 11.029 9.978 9.037 8.193 7.438 6.761 6.155 5.611 5.123 4.685 4.290 3.935 3.614 3.323 3.060 2.820 2.602 2.402 2.220 2.052 1.897 1.754 1.622 
14.379 14.749 15.125 15.510 15.908 16.322 16.758 17.220 17.716 18.251 18.832 19.467 20.163 20.928 21.772 22.700 23.722 24.846 26.078 27.426 28.897 30.497 32.231 34.106 36.124 38.292 40.611 43.084 45.712 48.495 51.431 54.515 57.737 61.086 64.545 68.089 71.689 75.310 78.906 82.429 85.821 89.020 91.962 94.579 96.807 98.584 99.854 100.572 100.703 100.227 99.138 97.448 95.181 92.378 89.093 85.390 81.341 77.023 72.516 67.897 63.240 58.613 54.078 49.684 45.474 41.480 37.723 34.218 30.972 27.984 25.248 22.755 20.493 18.447 16.601 14.941 13.449 12.111 10.912 9.839 8.880 8.022 7.255 6.569 5.957 5.409 4.919 4.480 4.087 3.734 3.417 3.132 2.874 2.641 2.430 2.238 2.063 1.903 1.756 1.621 1.496 
17.545 17.896 18.248 18.604 18.969 19.346 19.741 20.159 20.607 21.092 21.621 22.201 22.843 23.553 24.341 25.217 26.187 27.263 28.451 29.762 31.202 32.780 34.504 36.381 38.418 40.620 42.995 45.545 48.275 51.187 54.278 57.544 60.977 64.563 68.282 72.107 76.003 79.926 83.827 87.646 91.317 94.769 97.927 100.717 103.066 104.905 106.176 106.832 106.837 106.175 104.846 102.865 100.268 97.103 93.435 89.338 84.892 80.185 75.301 70.326 65.337 60.407 55.596 50.958 46.531 42.348 38.428 34.784 31.417 28.327 25.505 22.938 20.613 18.513 16.622 14.922 13.397 12.031 10.808 9.715 8.738 7.866 7.088 6.394 5.775 5.223 4.731 4.292 3.900 3.550 3.236 2.955 2.703 2.476 2.271 2.086 1.917 1.764 1.625 1.497 1.380 
21.531 21.839 22.142 22.443 22.746 23.057 23.382 23.725 24.095 24.498 24.944 25.440 25.996 26.621 27.325 28.118 29.010 30.010 31.130 32.379 33.767 35.304 37.000 38.865 40.908 43.137 45.562 48.189 51.023 54.068 57.324 60.787 64.446 68.287 72.285 76.409 80.619 84.862 89.080 93.203 97.157 100.858 104.224 107.170 109.616 111.489 112.727 113.281 113.119 112.228 110.614 108.302 105.336 101.776 97.695 93.180 88.320 83.210 77.943 72.610 67.293 62.064 56.988 52.115 47.485 43.126 39.056 35.283 31.809 28.628 25.728 23.097 20.716 18.570 16.638 14.904 13.349 11.957 10.712 9.601 8.608 7.724 6.935 6.234 5.609 5.053 4.559 4.119 3.728 3.380 3.069 2.792 2.545 2.323 2.124 1.945 1.783 1.637 1.504 1.383 1.272 
26.566 26.803 27.025 27.236 27.443 27.650 27.865 28.093 28.344 28.625 28.946 29.317 29.746 30.246 30.826 31.499 32.275 33.166 34.183 35.340 36.648 38.118 39.764 41.598 43.631 45.876 48.343 51.043 53.983 57.167 60.597 64.268 68.168 72.280 76.576 81.017 85.556 90.132 94.675 99.107 103.340 107.281 110.838 113.916 116.428 118.298 119.461 119.869 119.493 118.326 116.383 113.697 110.323 106.334 101.815 96.860 91.571 86.051 80.400 74.712 69.072 63.557 58.228 53.135 48.317 43.797 39.592 35.707 32.138 28.877 25.912 23.225 20.797 18.610 16.645 14.881 13.300 11.886 10.622 9.494 8.488 7.592 6.795 6.085 5.455 4.896 4.400 3.960 3.569 3.223 2.915 2.642 2.399 2.182 1.988 1.814 1.659 1.518 1.391 1.276 1.172 
32.915 33.048 33.153 33.236 33.303 33.360 33.417 33.481 33.562 33.668 33.812 34.004 34.255 34.577 34.984 35.487 36.100 36.836 37.709 38.733 39.923 41.293 42.860 44.637 46.640 48.885 51.384 54.150 57.194 60.520 64.131 68.021 72.176 76.574 81.182 85.954 90.833 95.750 100.622 105.358 109.860 114.024 117.745 120.923 123.464 125.286 126.326 126.537 125.896 124.404 122.083 118.980 115.163 110.714 105.732 100.322 94.595 88.662 82.629 76.594 70.645 64.857 59.292 53.998 49.010 44.349 40.026 36.044 32.395 29.069 26.049 23.316 20.851 18.631 16.637 14.849 13.247 11.814 10.535 9.392 8.375 7.469 6.663 5.948 5.313 4.751 4.253 3.812 3.423 3.078 2.773 2.503 2.264 2.051 1.863 1.694 1.544 1.409 1.288 1.179 1.080 
40.856 40.855 40.807 40.720 40.600 40.458 40.302 40.144 39.994 39.865 39.768 39.717 39.725 39.806 39.975 40.247 40.637 41.161 41.835 42.676 43.701 44.929 46.377 48.065 50.010 52.232 54.746 57.569 60.710 64.178 67.974 72.090 76.509 81.204 86.135 91.246 96.472 101.729 106.925 111.954 116.706 121.066 124.917 128.153 130.674 132.398 133.260 133.218 132.258 130.387 127.642 124.081 119.785 114.849 109.385 103.509 97.340 90.997 84.591 78.223 71.981 65.941 60.161 54.688 49.551 44.768 40.347 36.286 32.573 29.196 26.133 23.366 20.871 18.627 16.612 14.805 13.186 11.739 10.446 9.293 8.265 7.351 6.539 5.818 5.180 4.615 4.116 3.675 3.287 2.944 2.641 2.375 2.139 1.931 1.747 1.583 1.438 1.308 1.192 1.088 0.994 
50.646 50.490 50.260 49.965 49.616 49.223 48.800 48.358 47.913 47.479 47.070 46.702 46.393 46.158 46.015 45.982 46.077 46.319 46.727 47.321 48.124 49.155 50.437 51.992 53.843 56.012 58.518 61.378 64.606 68.210 72.188 76.531 81.218 86.215 91.471 96.924 102.493 108.084 113.588 118.889 123.861 128.378 132.316 135.559 138.005 139.570 140.193 139.839 138.501 136.200 132.984 128.925 124.119 118.674 112.715 106.367 99.759 93.015 86.251 79.568 73.056 66.787 60.818 55.189 49.928 45.047 40.548 36.426 32.667 29.252 26.161 23.370 20.856 18.595 16.565 14.745 13.114 11.656 10.354 9.192 8.157 7.237 6.420 5.695 5.054 4.488 3.988 3.548 3.160 2.819 2.519 2.255 2.024 1.819 1.640 1.481 1.340 1.215 1.104 1.005 0.916 
62.472 62.157 61.731 61.206 60.594 59.909 59.169 58.388 57.584 56.775 55.980 55.219 54.512 53.878 53.340 52.919 52.636 52.515 52.580 52.854 53.362 54.132 55.188 56.558 58.269 60.345 62.809 65.682 68.977 72.701 76.852 81.417 86.367 91.661 97.238 103.023 108.923 114.827 120.615 126.153 131.303 135.929 139.897 143.086 145.391 146.731 147.050 146.320 144.545 141.761 138.029 133.437 128.094 122.125 115.662 108.844 101.807 94.678 87.576 80.603 73.848 67.378 61.248 55.492 50.132 45.176 40.622 36.460 32.671 29.235 26.128 23.325 20.801 18.531 16.493 14.666 13.029 11.564 10.256 9.088 8.048 7.124 6.304 5.577 4.934 4.367 3.867 3.428 3.041 2.703 2.405 2.145 1.917 1.716 1.541 1.386 1.250 1.129 1.023 0.928 0.843 
76.392 75.941 75.330 74.573 73.687 72.689 71.598 70.434 69.220 67.978 66.731 65.503 64.319 63.204 62.185 61.288 60.541 59.970 59.605 59.475 59.612 60.045 60.807 61.930 63.443 65.378 67.759 70.608 73.941 77.762 82.067 86.836 92.034 97.609 103.490 109.586 115.789 121.975 128.005 133.732 139.007 143.679 147.610 150.673 152.765 153.807 153.750 152.578 150.308 146.989 142.700 137.544 131.645 125.140 118.175 110.896 103.445 95.953 88.540 81.308 74.340 67.702 61.441 55.587 50.157 45.152 40.566 36.383 32.583 29.141 26.031 23.227 20.703 18.433 16.394 14.565 12.926 11.460 10.149 8.979 7.937 7.011 6.189 5.461 4.818 4.251 3.752 3.314 2.930 2.594 2.299 2.042 1.817 1.621 1.449 1.298 1.166 1.050 0.948 0.857 0.777 
92.271 91.740 90.989 90.034 88.893 87.589 86.143 84.581 82.929 81.214 79.465 77.713 75.988 74.320 72.743 71.289 69.991 68.884 68.004 67.386 67.067 67.085 67.478 68.283 69.537 71.273 73.520 76.302 79.633 83.518 87.945 92.891 98.309 104.137 110.289 116.660 123.125 129.543 135.760 141.614 146.943 151.587 155.400 158.257 160.053 160.718 160.211 158.530 155.706 151.806 146.923 141.178 134.709 127.667 120.207 112.483 104.641 96.815 89.124 81.666 74.522 67.750 61.392 55.472 50.000 44.973 40.377 36.195 32.401 28.968 25.869 23.075 20.560 18.298 16.265 14.441 12.805 11.341 10.031 8.862 7.821 6.895 6.074 5.347 4.705 4.139 3.642 3.206 2.825 2.491 2.200 1.946 1.725 1.532 1.364 1.217 1.089 0.977 0.879 0.792 0.716 
109.734 109.217 108.410 107.328 105.994 104.430 102.664 100.724 98.641 96.449 94.182 91.877 89.570 87.301 85.109 83.033 81.116 79.400 77.928 76.743 75.892 75.419 75.369 75.788 76.716 78.192 80.250 82.913 86.196 90.101 94.611 99.692 105.290 111.328 117.704 124.297 130.965 137.550 143.881 149.783 155.080 159.606 163.212 165.769 167.182 167.385 166.352 164.095 160.662 156.135 150.628 144.276 137.232 129.658 121.718 113.573 105.371 97.246 89.314 81.670 74.387 67.519 61.100 55.147 49.662 44.638 40.057 35.895 32.124 28.716 25.640 22.867 20.371 18.125 16.105 14.291 12.664 11.206 9.902 8.737 7.699 6.775 5.957 5.232 4.593 4.030 3.536 3.103 2.724 2.394 2.106 1.856 1.638 1.449 1.285 1.142 1.018 0.910 0.815 0.732 0.659 
128.142 127.771 127.029 125.935 124.509 122.778 120.770 118.518 116.059 113.429 110.670 107.825 104.939 102.057 99.227 96.498 93.921 91.547 89.430 87.621 86.177 85.150 84.596 84.566 85.109 86.269 88.083 90.576 93.761 97.636 102.180 107.347 113.071 119.260 125.798 132.545 139.341 146.009 152.365 158.218 163.383 167.690 170.984 173.144 174.077 173.732 172.096 169.197 165.102 159.911 153.755 146.786 139.169 131.077 122.681 114.145 105.619 97.235 89.105 81.316 73.936 67.011 60.566 54.613 49.146 44.152 39.607 35.485 31.755 28.385 25.345 22.604 20.135 17.912 15.913 14.115 12.501 11.054 9.758 8.600 7.568 6.651 5.837 5.117 4.481 3.922 3.432 3.003 2.628 2.301 2.018 1.771 1.558 1.372 1.212 1.073 0.952 0.848 0.757 0.677 0.608 
146.617 146.545 146.022 145.063 143.689 141.924 139.800 137.352 134.618 131.642 128.469 125.149 121.733 118.276 114.834 111.465 108.231 105.192 102.412 99.956 97.889 96.275 95.178 94.659 94.775 95.575 97.100 99.377 102.418 106.215 110.739 115.936 121.725 127.998 134.622 141.439 148.271 154.924 161.199 166.893 171.814 175.786 178.658 180.312 180.667 179.685 177.370 173.767 168.963 163.077 156.256 148.667 140.487 131.899 123.077 114.189 105.381 96.783 88.498 80.610 73.176 66.233 59.800 53.878 48.458 43.519 39.033 34.969 31.296 27.978 24.985 22.286 19.853 17.660 15.687 13.911 12.315 10.882 9.599 8.452 7.430 6.520 5.712 4.999 4.369 3.815 3.330 2.905 2.535 2.213 1.933 1.691 1.481 1.300 1.144 1.008 0.891 0.790 0.703 0.626 0.560 
164.099 164.490 164.353 163.699 162.545 160.915 158.838 156.351 153.493 150.310 146.853 143.177 139.338 135.401 131.428 127.488 123.653 119.994 116.586 113.506 110.830 108.635 106.995 105.980 105.657 106.079 107.292 109.325 112.187 115.865 120.322 125.493 131.282 137.565 144.192 150.985 157.750 164.277 170.353 175.766 180.319 183.834 186.166 187.204 186.881 185.175 182.107 177.744 172.191 165.586 158.092 149.890 141.167 132.112 122.902 113.704 104.661 95.896 87.506 79.564 72.118 65.198 58.811 52.954 47.607 42.747 38.340 34.352 30.750 27.497 24.562 21.913 19.524 17.369 15.427 13.678 12.105 10.692 9.425 8.292 7.281 6.381 5.583 4.877 4.255 3.708 3.228 2.810 2.445 2.128 1.853 1.615 1.410 1.232 1.080 0.948 0.835 0.737 0.653 0.580 0.517 
179.460 180.463 180.873 180.693 179.937 178.623 176.779 174.438 171.641 168.433 164.867 161.002 156.901 152.632 148.268 143.885 139.565 135.389 131.446 127.823 124.608 121.890 119.756 118.284 117.549 117.614 118.525 120.313 122.984 126.522 130.878 135.976 141.705 147.926 154.469 161.142 167.731 174.015 179.767 184.772 188.828 191.761 193.433 193.745 192.647 190.133 186.247 181.075 174.742 167.404 159.239 150.440 141.202 131.716 122.162 112.702 103.474 94.593 86.146 78.196 70.782 63.922 57.617 51.853 46.606 41.846 37.536 33.641 30.123 26.946 24.078 21.489 19.150 17.040 15.135 13.418 11.872 10.482 9.234 8.118 7.122 6.235 5.448 4.752 4.139 3.600 3.128 2.715 2.356 2.045 1.775 1.542 1.341 1.168 1.020 0.892 0.782 0.688 0.607 0.537 0.476 
191.644 193.369 194.453 194.893 194.695 193.871 192.444 190.442 187.903 184.872 181.402 177.552 173.388 168.984 164.418 159.773 155.139 150.610 146.283 142.257 138.633 135.510 132.986 131.150 130.083 129.855 130.516 132.096 134.600 138.002 142.246 147.243 152.867 158.963 165.345 171.802 178.110 184.034 189.341 193.809 197.242 199.470 200.367 199.851 197.888 194.494 189.734 183.715 176.582 168.508 159.685 150.314 140.595 130.723 120.875 111.205 101.845 92.899 84.444 76.531 69.190 62.427 56.234 50.591 45.468 40.828 36.633 32.843 29.421 26.330 23.538 21.015 18.734 16.673 14.811 13.130 11.615 10.252 9.028 7.931 6.953 6.081 5.307 4.623 4.020 3.490 3.026 2.622 2.270 1.964 1.700 1.473 1.276 1.108 0.963 0.840 0.733 0.642 0.564 0.497 0.440 
199.804 202.301 204.134 205.291 205.769 205.574 204.720 203.230 201.137 198.483 195.317 191.698 187.692 183.375 178.829 174.143 169.414 164.742 160.235 156.001 152.153 148.798 146.045 143.992 142.727 142.323 142.833 144.286 146.683 149.991 154.143 159.037 164.533 170.460 176.617 182.780 188.712 194.169 198.916 202.732 205.424 206.836 206.856 205.420 202.516 198.184 192.509 185.621 177.683 168.883 159.425 149.517 139.364 129.156 119.066 109.242 99.804 90.845 82.430 74.599 67.369 60.737 54.686 49.189 44.209 39.706 35.639 31.968 28.652 25.655 22.946 20.495 18.278 16.271 14.456 12.815 11.335 10.002 8.805 7.731 6.772 5.918 5.160 4.489 3.898 3.379 2.925 2.528 2.184 1.885 1.628 1.405 1.214 1.051 0.910 0.790 0.688 0.600 0.525 0.461 0.406 
203.426 206.674 209.259 211.164 212.374 212.889 212.714 211.866 210.369 208.261 205.585 202.399 198.765 194.760 190.467 185.977 181.392 176.819 172.371 168.164 164.319 160.953 158.181 156.106 154.824 154.409 154.914 156.366 158.758 162.051 166.166 170.986 176.360 182.100 187.992 193.801 199.280 204.184 208.275 211.339 213.194 213.698 212.757 210.331 206.432 201.121 194.510 186.748 178.017 168.517 158.462 148.065 137.530 127.044 116.771 106.850 97.389 88.469 80.141 72.432 65.349 58.878 52.995 47.665 42.846 38.495 34.569 31.024 27.822 24.927 22.307 19.934 17.784 15.836 14.072 12.476 11.035 9.735 8.566 7.519 6.582 5.747 5.006 4.351 3.773 3.266 2.822 2.435 2.099 1.808 1.557 1.341 1.155 0.996 0.860 0.744 0.645 0.560 0.488 0.427 0.375 
202.401 206.303 209.571 212.178 214.104 215.339 215.881 215.738 214.929 213.482 211.437 208.844 205.765 202.270 198.444 194.379 190.176 185.946 181.807 177.880 174.290 171.159 168.607 166.743 165.660 165.435 166.119 167.731 170.258 173.649 177.814 182.623 187.909 193.471 199.086 204.507 209.485 213.773 217.139 219.379 220.324 219.854 217.898 214.438 209.514 203.213 195.668 187.050 177.557 167.401 156.802 145.974 135.120 124.419 114.026 104.068 94.640 85.809 77.612 70.064 63.160 56.879 51.185 46.040 41.397 37.209 33.432 30.023 26.942 24.153 21.627 19.336 17.258 15.372 13.662 12.114 10.714 9.450 8.314 7.294 6.381 5.568 4.846 4.208 3.645 3.151 2.718 2.342 2.015 1.732 1.488 1.278 1.098 0.944 0.812 0.700 0.605 0.524 0.455 0.396 0.346 
197.031 201.429 205.241 208.435 210.986 212.877 214.098 214.652 214.549 213.810 212.470 210.572 208.172 205.339 202.152 198.701 195.089 191.426 187.830 184.425 181.338 178.693 176.609 175.197 174.548 174.734 175.800 177.757 180.582 184.210 188.538 193.422 198.681 204.104 209.454 214.483 218.939 222.579 225.180 226.553 226.551 225.074 222.078 217.574 211.627 204.351 195.904 186.473 176.272 165.522 154.446 143.260 132.159 121.314 110.869 100.936 91.597 82.903 74.880 67.529 60.834 54.764 49.280 44.334 39.878 35.863 32.243 28.974 26.018 23.340 20.911 18.706 16.702 14.882 13.229 11.731 10.375 9.150 8.047 7.057 6.172 5.382 4.681 4.060 3.514 3.034 2.614 2.248 1.931 1.656 1.420 1.216 1.042 0.893 0.767 0.659 0.567 0.489 0.423 0.367 0.319 
187.979 192.668 196.836 200.446 203.471 205.887 207.683 208.852 209.401 209.344 208.710 207.536 205.873 203.784 201.345 198.644 195.778 192.858 189.999 187.325 184.959 183.026 181.642 180.911 180.920 181.734 183.386 185.877 189.168 193.182 197.799 202.859 208.170 213.507 218.630 223.286 227.225 230.213 232.042 232.541 231.586 229.104 225.081 219.556 212.623 204.422 195.132 184.958 174.126 162.864 151.398 139.938 128.672 117.760 107.334 97.490 88.296 79.788 71.978 64.856 58.397 52.560 47.300 42.566 38.306 34.470 31.012 27.887 25.059 22.495 20.165 18.048 16.121 14.368 12.775 11.329 10.019 8.836 7.769 6.811 5.954 5.189 4.510 3.909 3.379 2.915 2.508 2.154 1.847 1.582 1.353 1.157 0.989 0.845 0.723 0.619 0.531 0.457 0.394 0.340 0.295 
176.154 180.914 185.223 189.046 192.353 195.121 197.332 198.979 200.064 200.597 200.601 200.110 199.169 197.837 196.185 194.298 192.269 190.204 188.216 186.424 184.948 183.907 183.410 183.553 184.414 186.044 188.464 191.658 195.571 200.108 205.133 210.470 215.913 221.230 226.173 230.491 233.941 236.299 237.376 237.024 235.144 231.696 226.693 220.206 212.357 203.311 193.267 182.446 171.084 159.413 147.656 136.019 124.678 113.784 103.451 93.762 84.769 76.493 68.935 62.073 55.872 50.286 45.264 40.751 36.694 33.042 29.748 26.770 24.073 21.623 19.395 17.366 15.518 13.835 12.304 10.912 9.650 8.509 7.480 6.556 5.728 4.990 4.334 3.754 3.243 2.794 2.402 2.060 1.764 1.508 1.287 1.098 0.937 0.799 0.681 0.582 0.498 0.426 0.366 0.315 0.272 
162.580 167.200 171.439 175.266 178.651 181.573 184.014 185.967 187.429 188.412 188.933 189.025 188.729 188.101 187.208 186.129 184.956 183.789 182.738 181.913 181.430 181.398 181.916 183.070 184.922 187.509 190.833 194.861 199.517 204.686 210.214 215.911 221.557 226.911 231.723 235.745 238.743 240.510 240.877 239.721 236.975 232.626 226.722 219.363 210.699 200.917 190.235 178.888 167.116 155.154 143.221 131.513 120.198 109.409 99.248 89.780 81.043 73.046 65.775 59.201 53.280 47.960 43.187 38.902 35.053 31.587 28.460 25.631 23.064 20.731 18.605 16.667 14.899 13.286 11.817 10.481 9.269 8.172 7.183 6.294 5.497 4.787 4.155 3.597 3.104 2.672 2.295 1.966 1.681 1.435 1.223 1.041 0.886 0.754 0.642 0.546 0.466 0.398 0.340 0.292 0.251 
148.255 152.555 156.541 160.182 163.456 166.342 168.826 170.900 172.566 173.833 174.720 175.257 175.485 175.457 175.239 174.906 174.546 174.256 174.137 174.296 174.839 175.863 177.457 179.690 182.609 186.230 190.537 195.472 200.941 206.807 212.895 219.001 224.891 230.321 235.038 238.800 241.387 242.608 242.318 240.424 236.888 231.729 225.027 216.911 207.556 197.171 185.988 174.252 162.207 150.085 138.100 126.437 115.250 104.658 94.746 85.566 77.140 69.465 62.517 56.257 50.635 45.595 41.078 37.029 33.391 30.114 27.155 24.475 22.040 19.822 17.799 15.952 14.265 12.724 11.319 10.040 8.879 7.827 6.878 6.025 5.261 4.579 3.973 3.437 2.964 2.550 2.187 1.872 1.599 1.363 1.160 0.986 0.837 0.711 0.603 0.512 0.435 0.371 0.316 0.270 0.232 
134.038 137.889 141.480 144.788 147.793 150.481 152.842 154.871 156.574 157.962 159.056 159.886 160.496 160.937 161.274 161.582 161.946 162.457 163.213 164.312 165.849 167.911 170.572 173.885 177.877 182.544 187.844 193.700 199.992 206.562 213.218 219.737 225.879 231.392 236.026 239.549 241.753 242.470 241.581 239.020 234.782 228.919 221.537 212.795 202.890 192.048 180.515 168.540 156.367 144.225 132.317 120.816 109.861 99.557 89.972 81.144 73.081 65.769 59.175 53.253 47.946 43.198 38.947 35.137 31.713 28.627 25.837 23.306 21.002 18.901 16.981 15.225 13.619 12.151 10.811 9.590 8.480 7.475 6.568 5.752 5.021 4.368 3.788 3.275 2.823 2.426 2.080 1.778 1.517 1.291 1.097 0.931 0.790 0.669 0.566 0.480 0.407 0.345 0.294 0.250 0.214 
120.575 123.902 127.012 129.887 132.515 134.886 136.997 138.849 140.450 141.817 142.973 143.955 144.805 145.579 146.341 147.166 148.138 149.343 150.875 152.824 155.275 158.303 161.966 166.298 171.306 176.963 183.206 189.931 196.996 204.222 211.398 218.289 224.645 230.212 234.747 238.026 239.861 240.105 238.667 235.512 230.662 224.202 216.266 207.036 196.728 185.584 173.855 161.794 149.641 137.617 125.913 114.689 104.069 94.139 84.955 76.539 68.888 61.976 55.765 50.200 45.225 40.778 36.799 33.232 30.024 27.130 24.509 22.126 19.955 17.970 16.153 14.489 12.965 11.570 10.295 9.133 8.076 7.119 6.254 5.475 4.778 4.156 3.602 3.113 2.682 2.303 1.973 1.685 1.436 1.221 1.036 0.878 0.743 0.628 0.531 0.449 0.380 0.321 0.272 0.231 0.197 
108.276 111.055 113.648 116.045 118.237 120.224 122.005 123.590 124.992 126.232 127.340 128.356 129.326 130.310 131.374 132.594 134.051 135.831 138.022 140.706 143.959 147.842 152.398 157.641 163.558 170.100 177.178 184.667 192.401 200.181 207.782 214.956 221.448 227.007 231.394 234.401 235.859 235.647 233.699 230.011 224.636 217.684 209.316 199.734 189.170 177.874 166.101 154.102 142.112 130.338 118.959 108.120 97.926 88.451 79.733 71.782 64.584 58.106 52.300 47.111 42.478 38.340 34.638 31.317 28.327 25.624 23.172 20.939 18.899 17.031 15.318 13.746 12.304 10.983 9.774 8.671 7.668 6.758 5.936 5.197 4.534 3.942 3.416 2.950 2.540 2.181 1.866 1.593 1.356 1.152 0.977 0.826 0.698 0.589 0.497 0.419 0.354 0.299 0.252 0.214 0.181 
97.320 99.572 101.660 103.578 105.325 106.905 108.326 109.601 110.750 111.801 112.789 113.759 114.762 115.862 117.127 118.635 120.467 122.708 125.439 128.736 132.665 137.274 142.588 148.606 155.292 162.574 170.342 178.447 186.704 194.898 202.789 210.121 216.639 222.093 226.259 228.943 229.998 229.329 226.899 222.730 216.905 209.559 200.874 191.068 180.383 169.076 157.400 145.601 133.901 122.497 111.551 101.190 91.505 82.552 74.355 66.914 60.203 54.183 48.801 44.000 39.718 35.894 32.471 29.397 26.625 24.114 21.831 19.746 17.838 16.086 14.477 12.997 11.638 10.391 9.249 8.207 7.257 6.396 5.618 4.917 4.289 3.728 3.229 2.788 2.400 2.059 1.761 1.502 1.278 1.084 0.918 0.776 0.655 0.552 0.465 0.391 0.329 0.277 0.234 0.197 0.167 
87.709 89.485 91.110 92.586 93.915 95.108 96.176 97.140 98.026 98.867 99.703 100.585 101.570 102.725 104.121 105.839 107.958 110.562 113.727 117.523 122.004 127.206 133.138 139.780 147.076 154.934 163.223 171.774 180.384 188.825 196.845 204.187 210.597 215.834 219.686 221.980 222.592 221.455 218.557 213.950 207.740 200.086 191.186 181.271 170.589 159.396 147.942 136.462 125.165 114.233 103.810 94.006 84.894 76.516 68.884 61.984 55.784 50.239 45.293 40.886 36.958 33.449 30.306 27.478 24.923 22.603 20.487 18.551 16.773 15.138 13.632 12.245 10.969 9.797 8.722 7.740 6.845 6.033 5.298 4.637 4.044 3.514 3.044 2.627 2.260 1.938 1.657 1.412 1.200 1.018 0.861 0.727 0.612 0.515 0.433 0.364 0.306 0.257 0.216 0.182 0.153 
79.318 80.686 81.914 83.006 83.971 84.821 85.576 86.260 86.905 87.548 88.236 89.024 89.974 91.155 92.645 94.522 96.867 99.761 103.275 107.470 112.392 118.063 124.476 131.593 139.341 147.606 156.241 165.058 173.841 182.350 190.331 197.526 203.686 208.584 212.024 213.856 213.980 212.356 209.000 203.989 197.452 189.565 180.541 170.617 160.044 149.074 137.947 126.885 116.084 105.704 95.875 86.686 78.196 70.430 63.389 57.050 51.374 46.311 41.804 37.792 34.217 31.021 28.154 25.570 23.228 21.096 19.147 17.357 15.709 14.189 12.787 11.493 10.300 9.202 8.195 7.274 6.433 5.670 4.980 4.358 3.800 3.302 2.859 2.467 2.122 1.819 1.554 1.324 1.125 0.953 0.805 0.679 0.572 0.480 0.403 0.338 0.283 0.238 0.199 0.167 0.141 
71.955 72.989 73.892 74.671 75.338 75.909 76.408 76.863 77.310 77.792 78.360 79.074 79.999 81.208 82.779 84.792 87.328 90.461 94.260 98.778 104.047 110.077 116.847 124.302 132.350 140.862 149.672 158.581 167.361 175.768 183.545 190.440 196.214 200.655 203.590 204.891 204.486 202.359 198.554 193.171 186.358 178.306 169.237 159.392 149.018 138.359 127.645 117.081 106.844 97.078 87.891 79.357 71.517 64.384 57.947 52.176 47.025 42.442 38.369 34.746 31.517 28.628 26.031 23.684 21.551 19.604 17.816 16.170 14.651 13.245 11.945 10.743 9.633 8.610 7.670 6.809 6.024 5.310 4.664 4.081 3.559 3.092 2.677 2.309 1.986 1.701 1.453 1.237 1.051 0.890 0.751 0.633 0.532 0.447 0.374 0.313 0.262 0.219 0.184 0.154 0.129 
65.412 66.185 66.835 67.371 67.809 68.168 68.475 68.761 69.066 69.438 69.930 70.606 71.534 72.789 74.450 76.596 79.306 82.650 86.690 91.469 97.010 103.307 110.327 117.997 126.210 134.821 143.652 152.493 161.111 169.258 176.682 183.140 188.407 192.292 194.643 195.359 194.392 191.756 187.517 181.796 174.758 166.604 157.561 147.870 137.770 127.496 117.261 107.253 97.631 88.518 80.003 72.144 64.966 58.470 52.635 47.425 42.790 38.676 35.024 31.778 28.883 26.289 23.952 21.834 19.903 18.134 16.504 14.999 13.604 12.311 11.111 10.000 8.971 8.022 7.149 6.349 5.618 4.953 4.351 3.808 3.320 2.885 2.497 2.154 1.852 1.586 1.355 1.153 0.978 0.828 0.699 0.588 0.494 0.414 0.347 0.290 0.242 0.202 0.169 0.141 0.118 
